0.2123646 0.10313888 0.00038082
0.18466916 0.12574175 0.00039189
0.21509202 0.10090308 0.00037651
0.18432537 0.12601338 0.00039177
0.20727819 0.10731293 0.00038869
0.22703468 0.09141347 0.00042332
0.22698771 0.09144447 0.00042377
0.22622742 0.09205781 0.00042327
0.1837621 0.12647554 0.00039291
0.21553716 0.10053054 0.00037679
0.28517309 0.04475211 0.00061237
0.19973189 0.11356412 0.00040818
0.21165746 0.10371782 0.00038085
0.32046646 0.01604327 0.00062015
0.32046646 0.01604327 0.00062015
0.26661212 0.05938545 0.0004745
0.27731009 0.05052362 0.00043546
0.31038009 0.02380989 0.00051763
0.20480805 0.10931221 0.00038821
0.26127665 0.064089 0.00056169
0.28881849 0.04173052 0.0006005
0.18336265 0.1267947 0.00039082
0.2123646 0.10313888 0.00038082
0.31778172 0.01823997 0.0006158
0.26317584 0.06253114 0.00055914
0.26113542 0.06421426 0.00056518
0.29962987 0.03299714 0.00062724
0.14824016 0.15485641 0.00030157
0.2974533 0.03479622 0.00063293
0.27831646 0.04969401 0.0004326
0.28357213 0.04604576 0.00060573
0.2079198 0.10678611 0.00038909
0.20541335 0.10882383 0.00038901
0.29743072 0.03481683 0.00062568
0.31976783 0.01660741 0.00061922
0.26732337 0.05866061 0.00043602
0.22558285 0.09258305 0.00042165
0.27076736 0.05586483 0.00043663
0.18520914 0.12532174 0.0003946
0.25834469 0.06610918 0.00047208
0.27808889 0.04987991 0.00043393
0.25628434 0.0674498 0.00042394
0.2741931 0.0530272 0.0005383
0.26071002 0.06455205 0.00056293
0.27407294 0.05318873 0.00044138
0.27367784 0.05363915 0.00047991
0.19966864 0.11362569 0.00040863
0.26306067 0.06262329 0.00055992
0.29674385 0.03536876 0.000632
0.21216775 0.10329098 0.00038205
0.31844847 0.01716591 0.00050963
0.19923484 0.11396397 0.00040787
0.30152685 0.03154862 0.00064903
0.26981394 0.05663957 0.00043531
0.26821257 0.05809419 0.00047671
0.31596198 0.01984951 0.00062557
0.23528847 0.08508952 0.00050996
0.31090693 0.02338369 0.00051561
0.27700638 0.05068824 0.00057245
0.30889779 0.02501935 0.00051519
0.20506716 0.10839555 0.0005411
0.29239214 0.03913028 0.00044193
0.26959229 0.0568294 0.00043854
0.27432772 0.05297862 0.00044162
0.27385816 0.05348785 0.00048077
0.26992082 0.05655304 0.00043665
0.23636554 0.0833461 0.00055985
0.20645808 0.10777847 0.00047957
0.26913848 0.0571887 0.00043595
0.31011325 0.02402921 0.00051473
0.2646448 0.06098508 0.00047666
0.1113621 0.18514451 0.00036774
0.26798744 0.05802049 0.00041345
0.31943326 0.0163684 0.00051179
0.25021053 0.07239416 0.00047083
0.11330456 0.18342221 0.00033766
0.31857133 0.01706177 0.00051047
0.30934322 0.02465032 0.00051568
0.27081892 0.05581147 0.0004344
0.1991744 0.11401092 0.00040942
0.2083214 0.10636173 0.00041162
0.44279982-0.08316162 0.00088482
0.182278 0.12724607 0.00035225
0.24886143 0.07330082 0.00059874
0.25952307 0.06520549 0.00048161
0.28953845 0.04169445 0.00044436
0.25677107 0.06751855 0.00040216
0.2674039 0.05849438 0.00041335
0.26873136 0.05741625 0.00041409
0.27750755 0.05033392 0.00043185
0.2528809 0.07073689 0.00052321
0.26795393 0.05908271 0.00043271
0.27491608 0.05249538 0.00044158
0.38068226-0.03259175 0.00053314
0.26876836 0.05748296 0.00043437
0.25589601 0.06832628 0.00054614
0.2505982 0.07210636 0.0004052
0.2052005 0.10905962 0.00032213
0.29648876 0.03562107 0.00064609
0.30807869 0.02618438 0.00064985
0.26322523 0.06219584 0.0004253
0.24577732 0.07671279 0.00041326
0.26290678 0.06280796 0.00061657
0.25633525 0.06777818 0.00047361
0.24917838 0.07331064 0.00040604
0.25475533 0.06945575 0.00057351
0.26049646 0.06472612 0.00056184
0.27307398 0.05393568 0.00053723
0.26355745 0.06138084 0.00058435
0.26645555 0.05972601 0.00052705
0.26259783 0.06300875 0.00056309
0.19982026 0.11349737 0.00040983
0.25759996 0.06670212 0.00047263
0.18513655 0.12484818 0.00037308
0.31550614 0.0202998 0.00062707
0.26250742 0.06232708 0.00059374
0.29512684 0.03668251 0.00062503
0.30256684 0.03057367 0.00060506
0.25241502 0.07045654 0.00052402
0.31277366 0.022491 0.00058418
0.26814911 0.05894303 0.00043241
0.21471291 0.10138564 0.00048574
0.15806113 0.14680436 0.00038325
0.25432648 0.06907437 0.00039998
0.20702587 0.10748533 0.00037777
0.18693405 0.12394318 0.00040424
0.26429479 0.06111433 0.00042991
0.29392631 0.03772394 0.00064189
0.19358806 0.11797072 0.00030318
0.27445618 0.05379897 0.00043635
0.26328169 0.06193998 0.00042778
0.2736515 0.05341813 0.00056786
0.26356116 0.06242073 0.00041676
0.27347497 0.05379114 0.00048106
0.27649851 0.05097441 0.0006616
0.29759317 0.03477059 0.00044848
0.36242727-0.01873135 0.00062757
0.27638564 0.05098779 0.00064052
0.26547133 0.0601852 0.00043597
0.2770848 0.05067545 0.00043769
0.26715321 0.05879896 0.00043541
0.24783478 0.07504985 0.00040544
0.290533 0.04008078 0.00051364
0.249757 0.07276571 0.00046985
0.27723482 0.05064714 0.00044938
0.24687576 0.07586211 0.00040873
0.16524104 0.1409148 0.00038921
0.29310192 0.03821119 0.00057672
0.10301587 0.19187997 0.00035909
0.30091689 0.03204202 0.00064707
0.28206794 0.04653149 0.00061128
0.32100019 0.01561496 0.00061901
0.29183988 0.03982208 0.00044406
0.2364655 0.08350007 0.00055195
0.25185607 0.07108494 0.00039768
0.27329102 0.0535504 0.00059259
0.19599246 0.11655867 0.00040033
0.29522046 0.03696693 0.00050195
0.29097062 0.04042417 0.00043961
0.25612524 0.06828816 0.00043169
0.30004341 0.0327349 0.00061962
0.25749209 0.06664685 0.00060557
0.24987665 0.07272883 0.00040983
0.21088138 0.10433572 0.00037811
0.26129051 0.0635409 0.00042538
0.26797253 0.05781166 0.0005886
0.24777116 0.07514184 0.00041257
0.27711091 0.05072587 0.00044431
0.20341879 0.1104324 0.00038749
0.27400792 0.05417017 0.0004354
0.28442328 0.04535031 0.00061155
0.29413223 0.03749982 0.00061352
0.29502628 0.03687853 0.00066269
0.19570187 0.11703673 0.00036929
0.26797219 0.05821323 0.0004138
0.16900728 0.13786881 0.00044179
0.26038681 0.06417823 0.00040948
0.29677006 0.03456554 0.00064684
0.28428225 0.0457684 0.00044508
0.21242635 0.10285216 0.00054686
0.24882193 0.07378216 0.00052291
0.24385734 0.07739206 0.00051972
0.29283335 0.03849305 0.00065341
0.27699375 0.05083672 0.00045237
0.21798461 0.0984002 0.00054349
0.29441072 0.03733961 0.00065291
0.22497619 0.09307134 0.00042176
0.28559382 0.04387629 0.00045929
0.25785658 0.066313 0.00041934
0.29419313 0.03738374 0.00065836
0.2490384 0.07315022 0.00059781
0.25363224 0.06958681 0.00042479
0.14920824 0.1543517 0.00032026
0.29139765 0.0397976 0.00043858
0.39074356-0.04123482 0.00072612
0.27516365 0.05242893 0.00048273
0.28560947 0.04450149 0.0006412
0.28798416 0.04275496 0.0004613
0.24725745 0.07467403 0.00050649
0.26847443 0.05774916 0.00044443
0.2699719 0.05664682 0.00063034
0.2662416 0.05969056 0.00047876
0.20962715 0.10564431 0.00048101
0.14597265 0.1569155 0.00038838
0.30068218 0.03144391 0.00056984
0.2944058 0.03753339 0.00048485
0.26134238 0.06373317 0.00048038
0.23356455 0.08655336 0.00052444
0.32085971 0.01570341 0.00062908
0.26447392 0.06150271 0.00045088
0.25357366 0.0698684 0.00056741
0.25717336 0.06657258 0.0006347
0.27694103 0.05071642 0.00060615
0.21632927 0.09947104 0.00038065
0.3124783 0.02284552 0.00048752
0.28380396 0.04616583 0.00043455
0.25051142 0.07221906 0.00040558
0.26633527 0.05975991 0.00054685
0.28019093 0.04856125 0.00063586
0.27532547 0.0529432 0.00031253
0.27380104 0.05388805 0.00044655
0.28747361 0.04235627 0.00044331
0.26177691 0.06302572 0.00049131
0.2643708 0.06112329 0.00040614
0.21579133 0.0999078 0.00038106
0.24340113 0.07854766 0.00052654
0.29856795 0.03372858 0.00065693
0.07728458 0.21281262 0.00037461
0.28712017 0.04354422 0.00042792
0.2487781 0.07342264 0.00051895
0.15138473 0.15287205 0.00037644
0.2482141 0.07459652 0.00052197
0.2522081 0.07155152 0.00031004
0.28674628 0.04387021 0.00042863
0.26471107 0.06081576 0.00042785
0.28195899 0.04743449 0.00062608
0.28590088 0.04455941 0.00042405
0.28003611 0.04814124 0.00061888
0.26011817 0.0644114 0.0005359
0.22929548 0.09012283 0.00042526
0.23862986 0.08228964 0.00058323
0.28592974 0.04393215 0.00054423
0.26059878 0.06435072 0.00052961
0.21024383 0.10465368 0.00053969
0.26333197 0.06166379 0.00059791
0.27141366 0.05606114 0.00054245
0.25403209 0.06917547 0.00053189
0.26533812 0.06054208 0.00040987
0.2758831 0.05244343 0.00054763
0.17318875 0.13537985 0.00028588
0.29315898 0.03874039 0.0004458
0.2865927 0.04358799 0.00062321
0.28246541 0.04726962 0.00044975
0.26015776 0.06508345 0.00041564
0.14881572 0.15479774 0.00032571
0.21382059 0.10208394 0.00029893
0.24244376 0.07969646 0.00041374
0.26762348 0.05894776 0.00040956
0.25205917 0.07140655 0.00052163
0.17952072 0.12916199 0.00043257
0.20914502 0.10574597 0.00037695
0.2461313 0.07642782 0.00041214
0.2574845 0.06717423 0.0005121
0.11233004 0.18429423 0.00041275
0.14131744 0.16059269 0.00032205
0.27100319 0.0546734 0.0005431
0.29215362 0.0383291 0.00062545
0.10610046 0.18944552 0.00034123
0.07740198 0.21306423 0.0003113
0.2019166 0.11102222 0.00043353
0.11510655 0.1819819 0.00039643
0.29203313 0.03904512 0.00062272
0.13053008 0.16938348 0.00026458
0.13275019 0.16786054 0.00030856
0.1040105 0.19105125 0.00040545
0.14295202 0.15945569 0.00037598
0.07619985 0.21380637 0.00025429
0.22726962 0.09020419 0.00036728
