0.58772082 0.46911484 0.68069371
0.58117119 0.54939983 0.77488618
0.58650758 0.45885817 0.66332074
0.57935596 0.54931835 0.77402288
0.59078163 0.4891959 0.71443281
0.63756173 0.48473375 0.7823006
0.63636604 0.48333613 0.7810655
0.6348125 0.48422628 0.78080556
0.58001148 0.5507165 0.77733704
0.58486576 0.45662601 0.66119599
0.84896812 0.52985984 1.22864459
0.60590343 0.53325944 0.79747255
0.58798376 0.47101069 0.68260737
0.871558 0.44191264 1.10930831
0.871558 0.44191264 1.10930831
0.70304887 0.43982126 0.83122474
0.67324417 0.38097567 0.69436585
0.74409499 0.36297985 0.81155778
0.58745826 0.49238679 0.71554177
0.79334831 0.55163747 1.15499901
0.83505034 0.50560378 1.16766531
0.57841833 0.55064139 0.7731109
0.58772082 0.46911484 0.68069371
0.87019758 0.44729548 1.10824126
0.7912317 0.54311335 1.13755105
0.79655039 0.55572794 1.16828056
0.86600127 0.50174146 1.21755176
0.47758386 0.51045262 0.54286673
0.87223757 0.51292524 1.24486478
0.67136852 0.37669548 0.68492752
0.84468869 0.53270599 1.22211948
0.5902309 0.48753672 0.71339915
0.58860827 0.49194647 0.71684365
0.87034557 0.5116381 1.23007695
0.86963071 0.44196886 1.10704336
0.66982312 0.40298593 0.71910681
0.63457185 0.48432827 0.77784354
0.67307356 0.39716626 0.71421218
0.58510833 0.55207007 0.78374663
0.69678174 0.45809727 0.84852931
0.67158705 0.37737989 0.68769342
0.6272127 0.38627349 0.67104329
0.68131222 0.39972805 0.87071116
0.79382192 0.55433562 1.16145651
0.67818793 0.39331543 0.71812248
0.70890351 0.42588848 0.82402121
0.60783017 0.53474007 0.80030437
0.79114303 0.54378454 1.14014047
0.87008533 0.51281625 1.24202239
0.58623053 0.46857272 0.68170869
0.73044551 0.33299835 0.76017568
0.6048331 0.53317918 0.79635349
0.89727703 0.52378656 1.29831612
0.67217091 0.39850547 0.71345512
0.70653247 0.43996937 0.83626717
0.91382994 0.50239057 1.23625243
0.73076063 0.55929256 1.04788585
0.74453791 0.36264159 0.80853607
0.67921942 0.39780658 0.92171406
0.74364644 0.36723039 0.81371509
0.46748068 0.38105212 0.74356271
0.84285767 0.55437124 0.95624928
0.67418454 0.4020666 0.72312649
0.67782744 0.3925668 0.71760816
0.7082994 0.42534047 0.82474238
0.67240145 0.399616 0.71710079
0.56775273 0.39263595 0.83742983
0.56177281 0.46601294 0.81575895
0.67173277 0.40048543 0.71672257
0.74379571 0.36361559 0.80805607
0.70201777 0.44466963 0.84046807
0.49252114 0.68148519 0.78834049
0.64887669 0.38090042 0.65613249
0.73211143 0.33175735 0.76200113
0.62812027 0.41444489 0.77412353
0.47595213 0.63188446 0.68530458
0.72987269 0.33245643 0.76075515
0.74270742 0.36562877 0.81241577
0.67072023 0.39418699 0.70679825
0.60446527 0.53361312 0.79942324
0.57152973 0.4838712 0.74298823
1.11623017 0.28702237 1.3515418
0.52087694 0.3920771 0.54384472
0.60438896 0.41263001 0.94767996
0.7098543 0.46759728 0.8791706
0.88405547 0.5466512 0.93742017
0.7073542 0.45782228 0.73215245
0.64848426 0.38128033 0.65616163
0.64948506 0.38008515 0.6564384
0.66742782 0.37500763 0.68106931
0.73971448 0.526599 1.0382625
0.8364842 0.60308543 0.99125045
0.67728808 0.39083223 0.71553314
0.97300539 0.42164144 0.97519847
0.67012793 0.3987332 0.71166982
0.74900448 0.49700423 1.01950258
0.62644883 0.40547879 0.66494713
0.58315143 0.51075424 0.62141278
0.88661663 0.52988861 1.29985351
0.89187667 0.49699978 1.25304331
0.70224781 0.44366908 0.75509276
0.74134919 0.4770121 0.77129539
0.81535314 0.55978654 1.25879455
0.70224284 0.46842119 0.86479776
0.63483598 0.41543973 0.67848071
0.8049949 0.58514881 1.22775813
0.79352885 0.55513484 1.16089902
0.68004078 0.40158469 0.87115773
0.6192033 0.37233641 0.87161475
0.75621245 0.49507544 1.00372881
0.79391056 0.54923057 1.15520343
0.60693124 0.5347309 0.80230818
0.69395662 0.45706817 0.847247
0.5083804 0.3921 0.56418028
0.93127221 0.51756623 1.26405208
0.6392527 0.39573783 0.92544487
0.86673561 0.51557538 1.23425965
0.85359741 0.48412851 1.15140115
0.60591243 0.40450582 0.8384055
0.89982247 0.4952671 1.13850838
0.84001102 0.60548128 0.99383812
0.62809938 0.504573 0.89657918
0.47236102 0.48293881 0.64397983
0.62824528 0.39760581 0.64932692
0.58595022 0.47655084 0.68157295
0.59065528 0.55716822 0.80858225
0.66531029 0.40602239 0.7120509
0.88703319 0.53786604 1.30418907
0.50213339 0.41794354 0.48828049
0.84342065 0.59572052 0.99243732
0.66454215 0.40892092 0.71208998
0.67603659 0.40085431 0.91534122
0.78755196 0.51709058 0.83733643
0.70648706 0.42488013 0.8242771
0.66898567 0.40145809 1.05831463
0.82683309 0.4859385 0.86926504
0.75927114 0.28110007 0.89621091
0.64723466 0.38604729 1.00213005
0.67215212 0.40837167 0.7252232
0.66757104 0.37631097 0.69117871
0.66958999 0.40346193 0.7187278
0.74686373 0.51056257 0.80171362
0.75858158 0.44737944 0.92892934
0.62820391 0.41574238 0.77424149
0.68707307 0.39295281 0.73158483
0.75202089 0.5116474 0.80864484
0.46598556 0.46522976 0.63594614
0.82085896 0.47613203 1.07636232
0.48048587 0.68671716 0.7650519
0.89485331 0.5229343 1.29189341
0.68061533 0.38402472 0.95590821
0.87315202 0.44219371 1.10871264
0.88009333 0.51980634 0.89735575
0.61294174 0.42425316 0.88103019
0.62612149 0.40448872 0.65298244
0.64628364 0.38837315 0.93306968
0.60016703 0.50642825 0.74927037
0.87641354 0.49525919 0.96385195
0.86109549 0.50630843 0.87171848
0.75307889 0.48193132 0.81261377
0.89696579 0.5575185 1.33275187
0.6899462 0.46645861 1.06943184
0.63320496 0.41232746 0.6805641
0.58514855 0.46937762 0.67561471
0.65977141 0.4076808 0.70548761
0.62741834 0.37000849 0.87964642
0.75461109 0.5106289 0.81448459
0.68204962 0.38880989 0.71814435
0.58461044 0.49401019 0.71506178
0.84385013 0.59766603 0.99289326
0.84589978 0.52995872 1.2272254
0.87510243 0.54675801 1.28745977
0.90848204 0.55494381 1.37617477
0.63590318 0.45098468 0.65462178
0.68088356 0.41602512 0.70258255
0.47456116 0.45122967 0.69206783
0.63991283 0.38813211 0.65525994
0.69716181 0.36478435 0.99221829
0.84181429 0.50353864 0.87628384
0.55715322 0.44208666 0.86989864
0.68398636 0.50067507 0.99492366
0.5919594 0.42670211 0.86120564
0.87182029 0.53951613 1.34148312
0.68619871 0.39234716 0.73504994
0.57391993 0.43476789 0.86102962
0.89675717 0.54826202 1.34791351
0.63324898 0.48471077 0.77801543
0.69912433 0.38321916 0.73795507
0.6528934 0.41066652 0.6980943
0.87016814 0.52827183 1.32415093
0.60298935 0.41063921 0.94298648
0.62297412 0.3810182 0.66368149
0.53854055 0.46229554 0.56767335
0.81690129 0.49144025 0.85580319
0.97372502 0.36939808 1.27242738
0.71011252 0.42461311 0.82783276
0.88808144 0.57127033 1.36369477
0.84605965 0.49105553 0.88760386
0.60738546 0.39208328 0.78431339
0.67646371 0.40559679 0.73619259
0.73861264 0.47765825 1.14660735
0.70430439 0.44309101 0.84272704
0.64126766 0.47970652 0.8443769
0.51889643 0.49714146 0.67735135
0.69546044 0.38353047 0.93317967
0.85059209 0.46855232 0.8941243
0.71230229 0.46305404 0.87147493
0.74584037 0.59471155 1.13228071
0.87250617 0.44321653 1.12943511
0.75747718 0.44858082 0.79970692
0.68726695 0.47739354 1.02824846
0.62226147 0.40574976 0.99329558
0.67834091 0.39133974 0.95283288
0.5212811 0.35626485 0.54681369
0.88492162 0.49243661 0.95471201
0.83921071 0.50054943 0.85276026
0.63425451 0.41174697 0.67379299
0.75019624 0.51632753 1.08253817
0.80014929 0.50506792 1.22195343
0.77279868 0.51514103 0.63725583
0.76480278 0.45671569 0.81170176
0.69895124 0.38358618 0.71581283
0.64619275 0.38621394 0.76932557
0.67434708 0.41624839 0.68882613
0.52079522 0.35749134 0.54831382
0.75303949 0.56664174 1.09958197
0.85112727 0.49930289 1.27329724
0.46370694 0.76587843 0.83040137
0.85494297 0.52021807 0.86895288
0.60460704 0.41160842 0.83844787
0.57909342 0.53738832 0.72484218
0.7490815 0.56144066 1.09151837
0.72864586 0.52540521 0.63820287
0.85861907 0.52456003 0.87582927
0.67259072 0.4117516 0.71693433
0.86040518 0.54272307 1.26481564
0.85699064 0.52714952 0.87046442
0.67242163 0.38883572 0.97676311
0.65693441 0.4434523 0.93340479
0.73414988 0.59728916 0.94388361
0.72821508 0.53864683 1.12988832
0.78279104 0.46054396 0.99013288
0.72527364 0.49975911 1.01557538
0.56015984 0.45211623 0.87546056
0.64245465 0.40046865 0.9427096
0.84116311 0.56906146 1.15929395
0.61602805 0.37944638 0.80291393
0.71272115 0.44201141 0.72870126
0.846941 0.55215359 1.14014377
0.62573474 0.55998407 0.6027972
0.88058095 0.51814244 0.89900715
0.84495045 0.51288677 1.2089827
0.84649577 0.51393632 0.89860034
0.76568188 0.48537107 0.79202682
0.55645343 0.48003325 0.59590176
0.61637114 0.43527417 0.52529358
0.75606189 0.69849813 1.0837763
0.75977327 0.4813674 0.779767
0.73888766 0.52709484 1.03523019
0.43827636 0.43921818 0.67026673
0.59042371 0.4448027 0.64796656
0.74167402 0.47529675 0.76746124
0.76908029 0.50515902 0.97937314
0.49299199 0.52004546 0.69204795
0.50687462 0.47547411 0.56410502
0.47541999 0.255027 0.63478541
0.69210338 0.37464777 0.97655063
0.50608143 0.49753199 0.6040236
0.53629451 0.58142695 0.63361543
0.4776969 0.37903727 0.61941016
0.47621418 0.65529287 0.81040027
0.83246215 0.49981169 1.20436255
0.50379463 0.52802202 0.50331459
0.54970674 0.51947936 0.5960543
0.48888154 0.53812825 0.69416361
0.53129663 0.5104756 0.67782515
0.51473509 0.52440848 0.51854688
0.40856982 0.33414648 0.51027787
