19.713 -29.1267 25.9319 
23.607 -28.1267 23.5457 
27.0797 -27.1267 20.5797 
30.0457 -26.1267 17.107 
32.4319 -25.1267 13.213 
34.1796 -24.1267 8.99366 
35.2458 -23.1267 4.55288 
35.6041 -22.1267 -1.19387e-08 
35.2458 -21.1267 -4.55288 
34.1796 -20.1267 -8.99366 
32.4319 -19.1267 -13.213 
30.0457 -18.1267 -17.107 
27.0797 -17.1267 -20.5797 
23.607 -16.1267 -23.5457 
19.713 -15.1267 -25.9319 
15.4937 -14.1267 -27.6796 
11.0529 -13.1267 -28.7458 
6.5 -12.1267 -29.1041 
1.94711 -11.1267 -28.7458 
-2.49366 -10.1267 -27.6796 
-6.71299 -9.12672 -25.9319 
-10.607 -8.12672 -23.5457 
-14.0797 -7.12672 -20.5797 
-17.0457 -6.12672 -17.107 
-19.4319 -5.12672 -13.213 
-21.1796 -4.12672 -8.99366 
-22.2458 -3.12672 -4.55288 
-22.6041 -2.12672 2.38774e-08 
-22.2458 -1.12672 4.55288 
-21.1796 -0.126717 8.99366 
-19.4319 0.873283 13.213 
-17.0457 1.87328 17.107 
-14.0797 2.87328 20.5797 
-10.607 3.87328 23.5457 
-6.71299 4.87328 25.9319 
-2.49366 5.87328 27.6796 
1.94711 6.87328 28.7458 
6.5 7.87328 29.1041 
11.0529 8.87328 28.7458 
15.4937 9.87328 27.6796 
19.713 10.8733 25.9319 
23.607 11.8733 23.5457 
27.0797 12.8733 20.5797 
30.0457 13.8733 17.107 
32.4319 14.8733 13.213 
34.1796 15.8733 8.99366 
35.2458 16.8733 4.55288 
35.6041 17.8733 -3.58161e-08 
35.2458 18.8733 -4.55288 
34.1796 19.8733 -8.99366 
32.4319 20.8733 -13.213 
30.0457 21.8733 -17.107 
27.0797 22.8733 -20.5797 
23.607 23.8733 -23.5457 
19.713 24.8733 -25.9319 
15.4937 25.8733 -27.6796 
11.0529 26.8733 -28.7458 
6.5 27.8733 -29.1041 
1.94711 28.8733 -28.7458 
-2.49366 29.8733 -27.6796 
-6.71299 30.8733 -25.9319 
-10.607 31.8733 -23.5457 
-14.0797 32.8733 -20.5797 
-17.0457 33.8733 -17.107 
-19.4319 34.8733 -13.213 
-21.1796 35.8733 -8.99366 
-22.2458 36.8733 -4.55288 
-22.6041 37.8733 4.77548e-08 
-21.2767 -43.4541 0 
-20.9347 -42.4541 4.34523 
-19.9172 -41.4541 8.58348 
-18.2492 -40.4541 12.6104 
-15.9718 -39.4541 16.3267 
-13.1411 -38.4541 19.6411 
-9.82674 -37.4541 22.4718 
-6.11036 -36.4541 24.7492 
-2.08348 -35.4541 26.4172 
2.15477 -34.4541 27.4347 
6.5 -33.4541 27.7767 
10.8452 -32.4541 27.4347 
15.0835 -31.4541 26.4172 
19.1104 -30.4541 24.7492 
22.8267 -29.4541 22.4718 
26.1411 -28.4541 19.6411 
28.9718 -27.4541 16.3267 
31.2492 -26.4541 12.6104 
32.9172 -25.4541 8.58348 
33.9347 -24.4541 4.34523 
34.2767 -23.4541 -1.13942e-08 
33.9347 -22.4541 -4.34523 
32.9172 -21.4541 -8.58348 
31.2492 -20.4541 -12.6104 
28.9718 -19.4541 -16.3267 
26.1411 -18.4541 -19.6411 
22.8267 -17.4541 -22.4718 
19.1104 -16.4541 -24.7492 
15.0835 -15.4541 -26.4172 
10.8452 -14.4541 -27.4347 
6.5 -13.4541 -27.7767 
2.15477 -12.4541 -27.4347 
-2.08348 -11.4541 -26.4172 
-6.11036 -10.4541 -24.7492 
-9.82674 -9.45411 -22.4718 
-13.1411 -8.45411 -19.6411 
-15.9718 -7.45411 -16.3267 
-18.2492 -6.45411 -12.6104 
-19.9172 -5.45411 -8.58348 
-20.9347 -4.45411 -4.34523 
-21.2767 -3.45411 2.27884e-08 
-20.9347 -2.45411 4.34523 
-19.9172 -1.45411 8.58348 
-18.2492 -0.454105 12.6104 
-15.9718 0.545895 16.3267 
-13.1411 1.54589 19.6411 
-9.82674 2.54589 22.4718 
-6.11036 3.54589 24.7492 
-2.08348 4.54589 26.4172 
2.15477 5.54589 27.4347 
6.5 6.54589 27.7767 
10.8452 7.54589 27.4347 
15.0835 8.54589 26.4172 
19.1104 9.54589 24.7492 
22.8267 10.5459 22.4718 
26.1411 11.5459 19.6411 
28.9718 12.5459 16.3267 
31.2492 13.5459 12.6104 
32.9172 14.5459 8.58348 
33.9347 15.5459 4.34523 
34.2767 16.5459 -3.41826e-08 
33.9347 17.5459 -4.34523 
32.9172 18.5459 -8.58348 
31.2492 19.5459 -12.6104 
28.9718 20.5459 -16.3267 
26.1411 21.5459 -19.6411 
22.8267 22.5459 -22.4718 
19.1104 23.5459 -24.7492 
15.0835 24.5459 -26.4172 
10.8452 25.5459 -27.4347 
6.5 26.5459 -27.7767 
2.15477 27.5459 -27.4347 
-2.08348 28.5459 -26.4172 
-6.11036 29.5459 -24.7492 
-9.82674 30.5459 -22.4718 
-13.1411 31.5459 -19.6411 
-15.9718 32.5459 -16.3267 
-18.2492 33.5459 -12.6104 
-19.9172 34.5459 -8.58348 
-20.9347 35.5459 -4.34523 
-21.2767 36.5459 4.55768e-08 
-19.6041 -44.3063 0 
-19.2827 -43.3063 4.08358 
-18.3265 -42.3063 8.06661 
-16.7589 -41.3063 11.851 
-14.6187 -40.3063 15.3436 
-11.9584 -39.3063 18.4584 
-8.84361 -38.3063 21.1187 
-5.35102 -37.3063 23.2589 
-1.56661 -36.3063 24.8265 
2.41642 -35.3063 25.7827 
6.5 -34.3063 26.1041 
10.5836 -33.3063 25.7827 
14.5666 -32.3063 24.8265 
18.351 -31.3063 23.2589 
21.8436 -30.3063 21.1187 
24.9584 -29.3063 18.4584 
27.6187 -28.3063 15.3436 
29.7589 -27.3063 11.851 
31.3265 -26.3063 8.06661 
32.2827 -25.3063 4.08358 
32.6041 -24.3063 -1.07081e-08 
32.2827 -23.3063 -4.08358 
31.3265 -22.3063 -8.06661 
29.7589 -21.3063 -11.851 
27.6187 -20.3063 -15.3436 
24.9584 -19.3063 -18.4584 
21.8436 -18.3063 -21.1187 
18.351 -17.3063 -23.2589 
14.5666 -16.3063 -24.8265 
10.5836 -15.3063 -25.7827 
6.5 -14.3063 -26.1041 
2.41642 -13.3063 -25.7827 
-1.56661 -12.3063 -24.8265 
-5.35102 -11.3063 -23.2589 
-8.84361 -10.3063 -21.1187 
-11.9584 -9.30635 -18.4584 
-14.6187 -8.30635 -15.3436 
-16.7589 -7.30635 -11.851 
-18.3265 -6.30635 -8.06661 
-19.2827 -5.30635 -4.08358 
-19.6041 -4.30635 2.14162e-08 
-19.2827 -3.30635 4.08358 
-18.3265 -2.30635 8.06661 
-16.7589 -1.30635 11.851 
-14.6187 -0.306347 15.3436 
-11.9584 0.693653 18.4584 
-8.84361 1.69365 21.1187 
-5.35102 2.69365 23.2589 
-1.56661 3.69365 24.8265 
2.41642 4.69365 25.7827 
6.5 5.69365 26.1041 
10.5836 6.69365 25.7827 
14.5666 7.69365 24.8265 
18.351 8.69365 23.2589 
21.8436 9.69365 21.1187 
24.9584 10.6937 18.4584 
27.6187 11.6937 15.3436 
29.7589 12.6937 11.851 
31.3265 13.6937 8.06661 
32.2827 14.6937 4.08358 
32.6041 15.6937 -3.21242e-08 
32.2827 16.6937 -4.08358 
31.3265 17.6937 -8.06661 
29.7589 18.6937 -11.851 
27.6187 19.6937 -15.3436 
24.9584 20.6937 -18.4584 
21.8436 21.6937 -21.1187 
18.351 22.6937 -23.2589 
14.5666 23.6937 -24.8265 
10.5836 24.6937 -25.7827 
6.5 25.6937 -26.1041 
2.41642 26.6937 -25.7827 
-1.56661 27.6937 -24.8265 
-5.35102 28.6937 -23.2589 
-8.84361 29.6937 -21.1187 
-11.9584 30.6937 -18.4584 
-14.6187 31.6937 -15.3436 
-16.7589 32.6937 -11.851 
-18.3265 33.6937 -8.06661 
-19.2827 34.6937 -4.08358 
-19.6041 35.6937 4.28323e-08 
-17.75 -44.6 0 
-17.4514 -43.6 3.79354 
-16.5631 -42.6 7.49366 
-15.1069 -41.6 11.0093 
-13.1187 -40.6 14.2538 
-10.6473 -39.6 17.1473 
-7.75379 -38.6 19.6187 
-4.50927 -37.6 21.6069 
-0.993662 -36.6 23.0631 
2.70646 -35.6 23.9514 
6.5 -34.6 24.25 
10.2935 -33.6 23.9514 
13.9937 -32.6 23.0631 
17.5093 -31.6 21.6069 
20.7538 -30.6 19.6187 
23.6473 -29.6 17.1473 
26.1187 -28.6 14.2538 
28.1069 -27.6 11.0093 
29.5631 -26.6 7.49366 
30.4514 -25.6 3.79354 
30.75 -24.6 -9.94752e-09 
30.4514 -23.6 -3.79354 
29.5631 -22.6 -7.49366 
28.1069 -21.6 -11.0093 
26.1187 -20.6 -14.2538 
23.6473 -19.6 -17.1473 
20.7538 -18.6 -19.6187 
17.5093 -17.6 -21.6069 
13.9937 -16.6 -23.0631 
10.2935 -15.6 -23.9514 
6.5 -14.6 -24.25 
2.70646 -13.6 -23.9514 
-0.993662 -12.6 -23.0631 
-4.50927 -11.6 -21.6069 
-7.75379 -10.6 -19.6187 
-10.6473 -9.60001 -17.1473 
-13.1187 -8.60001 -14.2538 
-15.1069 -7.60001 -11.0093 
-16.5631 -6.60001 -7.49366 
-17.4514 -5.60001 -3.79354 
-17.75 -4.60001 1.9895e-08 
-17.4514 -3.60001 3.79354 
-16.5631 -2.60001 7.49366 
-15.1069 -1.60001 11.0093 
-13.1187 -0.600006 14.2538 
-10.6473 0.399994 17.1473 
-7.75379 1.39999 19.6187 
-4.50927 2.39999 21.6069 
-0.993662 3.39999 23.0631 
2.70646 4.39999 23.9514 
6.5 5.39999 24.25 
10.2935 6.39999 23.9514 
13.9937 7.39999 23.0631 
17.5093 8.39999 21.6069 
20.7538 9.39999 19.6187 
23.6473 10.4 17.1473 
26.1187 11.4 14.2538 
28.1069 12.4 11.0093 
29.5631 13.4 7.49366 
30.4514 14.4 3.79354 
30.75 15.4 -2.98425e-08 
30.4514 16.4 -3.79354 
29.5631 17.4 -7.49366 
28.1069 18.4 -11.0093 
26.1187 19.4 -14.2538 
23.6473 20.4 -17.1473 
20.7538 21.4 -19.6187 
17.5093 22.4 -21.6069 
13.9937 23.4 -23.0631 
10.2935 24.4 -23.9514 
6.5 25.4 -24.25 
2.70646 26.4 -23.9514 
-0.993662 27.4 -23.0631 
-4.50927 28.4 -21.6069 
-7.75379 29.4 -19.6187 
-10.6473 30.4 -17.1473 
-13.1187 31.4 -14.2538 
-15.1069 32.4 -11.0093 
-16.5631 33.4 -7.49366 
-17.4514 34.4 -3.79354 
-17.75 35.4 3.97901e-08 
-15.8959 -44.3063 0 
-15.6202 -43.3063 3.50349 
-14.7998 -42.3063 6.92071 
-13.4549 -41.3063 10.1675 
-11.6187 -40.3063 13.164 
-9.33629 -39.3063 15.8363 
-6.66398 -38.3063 18.1187 
-3.66752 -37.3063 19.9549 
-0.420712 -36.3063 21.2998 
2.99651 -35.3063 22.1202 
6.5 -34.3063 22.3959 
10.0035 -33.3063 22.1202 
13.4207 -32.3063 21.2998 
16.6675 -31.3063 19.9549 
19.664 -30.3063 18.1187 
22.3363 -29.3063 15.8363 
24.6187 -28.3063 13.164 
26.4549 -27.3063 10.1675 
27.7998 -26.3063 6.92071 
28.6202 -25.3063 3.50349 
28.8959 -24.3063 -9.18695e-09 
28.6202 -23.3063 -3.50349 
27.7998 -22.3063 -6.92071 
26.4549 -21.3063 -10.1675 
24.6187 -20.3063 -13.164 
22.3363 -19.3063 -15.8363 
19.664 -18.3063 -18.1187 
16.6675 -17.3063 -19.9549 
13.4207 -16.3063 -21.2998 
10.0035 -15.3063 -22.1202 
6.5 -14.3063 -22.3959 
2.99651 -13.3063 -22.1202 
-0.420712 -12.3063 -21.2998 
-3.66752 -11.3063 -19.9549 
-6.66398 -10.3063 -18.1187 
-9.33629 -9.30635 -15.8363 
-11.6187 -8.30635 -13.164 
-13.4549 -7.30635 -10.1675 
-14.7998 -6.30635 -6.92071 
-15.6202 -5.30635 -3.50349 
-15.8959 -4.30635 1.83739e-08 
-15.6202 -3.30635 3.50349 
-14.7998 -2.30635 6.92071 
-13.4549 -1.30635 10.1675 
-11.6187 -0.306347 13.164 
-9.33629 0.693653 15.8363 
-6.66398 1.69365 18.1187 
-3.66752 2.69365 19.9549 
-0.420712 3.69365 21.2998 
2.99651 4.69365 22.1202 
6.5 5.69365 22.3959 
10.0035 6.69365 22.1202 
13.4207 7.69365 21.2998 
16.6675 8.69365 19.9549 
19.664 9.69365 18.1187 
22.3363 10.6937 15.8363 
24.6187 11.6937 13.164 
26.4549 12.6937 10.1675 
27.7998 13.6937 6.92071 
28.6202 14.6937 3.50349 
28.8959 15.6937 -2.75609e-08 
28.6202 16.6937 -3.50349 
27.7998 17.6937 -6.92071 
26.4549 18.6937 -10.1675 
24.6187 19.6937 -13.164 
22.3363 20.6937 -15.8363 
19.664 21.6937 -18.1187 
16.6675 22.6937 -19.9549 
13.4207 23.6937 -21.2998 
10.0035 24.6937 -22.1202 
6.5 25.6937 -22.3959 
2.99651 26.6937 -22.1202 
-0.420712 27.6937 -21.2998 
-3.66752 28.6937 -19.9549 
-6.66398 29.6937 -18.1187 
-9.33629 30.6937 -15.8363 
-11.6187 31.6937 -13.164 
-13.4549 32.6937 -10.1675 
-14.7998 33.6937 -6.92071 
-15.6202 34.6937 -3.50349 
-15.8959 35.6937 3.67478e-08 
-14.2233 -43.4541 0 
-13.9682 -42.4541 3.24184 
-13.209 -41.4541 6.40385 
-11.9646 -40.4541 9.40818 
-10.2655 -39.4541 12.1808 
-8.15358 -38.4541 14.6536 
-5.68084 -37.4541 16.7655 
-2.90818 -36.4541 18.4646 
0.0961514 -35.4541 19.709 
3.25816 -34.4541 20.4682 
6.5 -33.4541 20.7233 
9.74184 -32.4541 20.4682 
12.9038 -31.4541 19.709 
15.9082 -30.4541 18.4646 
18.6808 -29.4541 16.7655 
21.1536 -28.4541 14.6536 
23.2655 -27.4541 12.1808 
24.9646 -26.4541 9.40818 
26.209 -25.4541 6.40385 
26.9682 -24.4541 3.24184 
27.2233 -23.4541 -8.50084e-09 
26.9682 -22.4541 -3.24184 
26.209 -21.4541 -6.40385 
24.9646 -20.4541 -9.40818 
23.2655 -19.4541 -12.1808 
21.1536 -18.4541 -14.6536 
18.6808 -17.4541 -16.7655 
15.9082 -16.4541 -18.4646 
12.9038 -15.4541 -19.709 
9.74184 -14.4541 -20.4682 
6.5 -13.4541 -20.7233 
3.25816 -12.4541 -20.4682 
0.0961514 -11.4541 -19.709 
-2.90818 -10.4541 -18.4646 
-5.68084 -9.45411 -16.7655 
-8.15358 -8.45411 -14.6536 
-10.2655 -7.45411 -12.1808 
-11.9646 -6.45411 -9.40818 
-13.209 -5.45411 -6.40385 
-13.9682 -4.45411 -3.24184 
-14.2233 -3.45411 1.70017e-08 
-13.9682 -2.45411 3.24184 
-13.209 -1.45411 6.40385 
-11.9646 -0.454105 9.40818 
-10.2655 0.545895 12.1808 
-8.15358 1.54589 14.6536 
-5.68084 2.54589 16.7655 
-2.90818 3.54589 18.4646 
0.0961514 4.54589 19.709 
3.25816 5.54589 20.4682 
6.5 6.54589 20.7233 
9.74184 7.54589 20.4682 
12.9038 8.54589 19.709 
15.9082 9.54589 18.4646 
18.6808 10.5459 16.7655 
21.1536 11.5459 14.6536 
23.2655 12.5459 12.1808 
24.9646 13.5459 9.40818 
26.209 14.5459 6.40385 
26.9682 15.5459 3.24184 
27.2233 16.5459 -2.55025e-08 
26.9682 17.5459 -3.24184 
26.209 18.5459 -6.40385 
24.9646 19.5459 -9.40818 
23.2655 20.5459 -12.1808 
21.1536 21.5459 -14.6536 
18.6808 22.5459 -16.7655 
15.9082 23.5459 -18.4646 
12.9038 24.5459 -19.709 
9.74184 25.5459 -20.4682 
6.5 26.5459 -20.7233 
3.25816 27.5459 -20.4682 
0.0961514 28.5459 -19.709 
-2.90818 29.5459 -18.4646 
-5.68084 30.5459 -16.7655 
-8.15358 31.5459 -14.6536 
-10.2655 32.5459 -12.1808 
-11.9646 33.5459 -9.40818 
-13.209 34.5459 -6.40385 
-13.9682 35.5459 -3.24184 
-14.2233 36.5459 3.40033e-08 
-12.8959 -42.1267 0 
-12.6571 -41.1267 3.03419 
-11.9466 -40.1267 5.99366 
-10.7819 -39.1267 8.80555 
-9.19161 -38.1267 11.4006 
-7.21497 -37.1267 13.715 
-4.90062 -36.1267 15.6916 
-2.30555 -35.1267 17.2819 
0.506338 -34.1267 18.4466 
3.46581 -33.1267 19.1571 
6.5 -32.1267 19.3959 
9.53419 -31.1267 19.1571 
12.4937 -30.1267 18.4466 
15.3056 -29.1267 17.2819 
17.9006 -28.1267 15.6916 
20.215 -27.1267 13.715 
22.1916 -26.1267 11.4006 
23.7819 -25.1267 8.80555 
24.9466 -24.1267 5.99366 
25.6571 -23.1267 3.03419 
25.8959 -22.1267 -7.95633e-09 
25.6571 -21.1267 -3.03419 
24.9466 -20.1267 -5.99366 
23.7819 -19.1267 -8.80555 
22.1916 -18.1267 -11.4006 
20.215 -17.1267 -13.715 
17.9006 -16.1267 -15.6916 
15.3056 -15.1267 -17.2819 
12.4937 -14.1267 -18.4466 
9.53419 -13.1267 -19.1571 
6.5 -12.1267 -19.3959 
3.46581 -11.1267 -19.1571 
0.506338 -10.1267 -18.4466 
-2.30555 -9.12672 -17.2819 
-4.90062 -8.12672 -15.6916 
-7.21497 -7.12672 -13.715 
-9.19161 -6.12672 -11.4006 
-10.7819 -5.12672 -8.80555 
-11.9466 -4.12672 -5.99366 
-12.6571 -3.12672 -3.03419 
-12.8959 -2.12672 1.59127e-08 
-12.6571 -1.12672 3.03419 
-11.9466 -0.126717 5.99366 
-10.7819 0.873283 8.80555 
-9.19161 1.87328 11.4006 
-7.21497 2.87328 13.715 
-4.90062 3.87328 15.6916 
-2.30555 4.87328 17.2819 
0.506338 5.87328 18.4466 
3.46581 6.87328 19.1571 
6.5 7.87328 19.3959 
9.53419 8.87328 19.1571 
12.4937 9.87328 18.4466 
15.3056 10.8733 17.2819 
17.9006 11.8733 15.6916 
20.215 12.8733 13.715 
22.1916 13.8733 11.4006 
23.7819 14.8733 8.80555 
24.9466 15.8733 5.99366 
25.6571 16.8733 3.03419 
25.8959 17.8733 -2.3869e-08 
25.6571 18.8733 -3.03419 
24.9466 19.8733 -5.99366 
23.7819 20.8733 -8.80555 
22.1916 21.8733 -11.4006 
20.215 22.8733 -13.715 
17.9006 23.8733 -15.6916 
15.3056 24.8733 -17.2819 
12.4937 25.8733 -18.4466 
9.53419 26.8733 -19.1571 
6.5 27.8733 -19.3959 
3.46581 28.8733 -19.1571 
0.506338 29.8733 -18.4466 
-2.30555 30.8733 -17.2819 
-4.90062 31.8733 -15.6916 
-7.21497 32.8733 -13.715 
-9.19161 33.8733 -11.4006 
-10.7819 34.8733 -8.80555 
-11.9466 35.8733 -5.99366 
-12.6571 36.8733 -3.03419 
-12.8959 37.8733 3.18253e-08 
-12.0437 -40.4541 0 
-11.8154 -39.4541 2.90087 
-11.1361 -38.4541 5.73031 
-10.0225 -37.4541 8.41864 
-8.50214 -36.4541 10.8997 
-6.61235 -35.4541 13.1123 
-4.39969 -34.4541 15.0021 
-1.91864 -33.4541 16.5225 
0.769695 -32.4541 17.6361 
3.59913 -31.4541 18.3154 
6.5 -30.4541 18.5437 
9.40087 -29.4541 18.3154 
12.2303 -28.4541 17.6361 
14.9186 -27.4541 16.5225 
17.3997 -26.4541 15.0021 
19.6123 -25.4541 13.1123 
21.5021 -24.4541 10.8997 
23.0225 -23.4541 8.41864 
24.1361 -22.4541 5.73031 
24.8154 -21.4541 2.90087 
25.0437 -20.4541 -7.60674e-09 
24.8154 -19.4541 -2.90087 
24.1361 -18.4541 -5.73031 
23.0225 -17.4541 -8.41864 
21.5021 -16.4541 -10.8997 
19.6123 -15.4541 -13.1123 
17.3997 -14.4541 -15.0021 
14.9186 -13.4541 -16.5225 
12.2303 -12.4541 -17.6361 
9.40087 -11.4541 -18.3154 
6.5 -10.4541 -18.5437 
3.59913 -9.45411 -18.3154 
0.769695 -8.45411 -17.6361 
-1.91864 -7.45411 -16.5225 
-4.39969 -6.45411 -15.0021 
-6.61235 -5.45411 -13.1123 
-8.50214 -4.45411 -10.8997 
-10.0225 -3.45411 -8.41864 
-11.1361 -2.45411 -5.73031 
-11.8154 -1.45411 -2.90087 
-12.0437 -0.454107 1.52135e-08 
-11.8154 0.545893 2.90087 
-11.1361 1.54589 5.73031 
-10.0225 2.54589 8.41864 
-8.50214 3.54589 10.8997 
-6.61235 4.54589 13.1123 
-4.39969 5.54589 15.0021 
-1.91864 6.54589 16.5225 
0.769695 7.54589 17.6361 
3.59913 8.54589 18.3154 
6.5 9.54589 18.5437 
9.40087 10.5459 18.3154 
12.2303 11.5459 17.6361 
14.9186 12.5459 16.5225 
17.3997 13.5459 15.0021 
19.6123 14.5459 13.1123 
21.5021 15.5459 10.8997 
23.0225 16.5459 8.41864 
24.1361 17.5459 5.73031 
24.8154 18.5459 2.90087 
25.0437 19.5459 -2.28202e-08 
24.8154 20.5459 -2.90087 
24.1361 21.5459 -5.73031 
23.0225 22.5459 -8.41864 
21.5021 23.5459 -10.8997 
19.6123 24.5459 -13.1123 
17.3997 25.5459 -15.0021 
14.9186 26.5459 -16.5225 
12.2303 27.5459 -17.6361 
9.40087 28.5459 -18.3154 
6.5 29.5459 -18.5437 
3.59913 30.5459 -18.3154 
0.769695 31.5459 -17.6361 
-1.91864 32.5459 -16.5225 
-4.39969 33.5459 -15.0021 
-6.61235 34.5459 -13.1123 
-8.50214 35.5459 -10.8997 
-10.0225 36.5459 -8.41864 
-11.1361 37.5459 -5.73031 
-11.8154 38.5459 -2.90087 
-12.0437 39.5459 3.04269e-08 
-11.75 -38.6 0 
-11.5253 -37.6 2.85493 
-10.8568 -36.6 5.63956 
-9.76087 -35.6 8.28533 
-8.26456 -34.6 10.7271 
-6.4047 -33.6 12.9047 
-4.22708 -32.6 14.7646 
-1.78533 -31.6 16.2609 
0.860441 -30.6 17.3568 
3.64507 -29.6 18.0253 
6.5 -28.6 18.25 
9.35493 -27.6 18.0253 
12.1396 -26.6 17.3568 
14.7853 -25.6 16.2609 
17.2271 -24.6 14.7646 
19.4047 -23.6 12.9047 
21.2646 -22.6 10.7271 
22.7609 -21.6 8.28533 
23.8568 -20.6 5.63956 
24.5253 -19.6 2.85493 
24.75 -18.6 -7.48627e-09 
24.5253 -17.6 -2.85493 
23.8568 -16.6 -5.63956 
22.7609 -15.6 -8.28533 
21.2646 -14.6 -10.7271 
19.4047 -13.6 -12.9047 
17.2271 -12.6 -14.7646 
14.7853 -11.6 -16.2609 
12.1396 -10.6 -17.3568 
9.35493 -9.60001 -18.0253 
6.5 -8.60001 -18.25 
3.64507 -7.60001 -18.0253 
0.860441 -6.60001 -17.3568 
-1.78533 -5.60001 -16.2609 
-4.22708 -4.60001 -14.7646 
-6.4047 -3.60001 -12.9047 
-8.26456 -2.60001 -10.7271 
-9.76087 -1.60001 -8.28533 
-10.8568 -0.600006 -5.63956 
-11.5253 0.399994 -2.85493 
-11.75 1.39999 1.49725e-08 
-11.5253 2.39999 2.85493 
-10.8568 3.39999 5.63956 
-9.76087 4.39999 8.28533 
-8.26456 5.39999 10.7271 
-6.4047 6.39999 12.9047 
-4.22708 7.39999 14.7646 
-1.78533 8.39999 16.2609 
0.860441 9.39999 17.3568 
3.64507 10.4 18.0253 
6.5 11.4 18.25 
9.35493 12.4 18.0253 
12.1396 13.4 17.3568 
14.7853 14.4 16.2609 
17.2271 15.4 14.7646 
19.4047 16.4 12.9047 
21.2646 17.4 10.7271 
22.7609 18.4 8.28533 
23.8568 19.4 5.63956 
24.5253 20.4 2.85493 
24.75 21.4 -2.24588e-08 
24.5253 22.4 -2.85493 
23.8568 23.4 -5.63956 
22.7609 24.4 -8.28533 
21.2646 25.4 -10.7271 
19.4047 26.4 -12.9047 
17.2271 27.4 -14.7646 
14.7853 28.4 -16.2609 
12.1396 29.4 -17.3568 
9.35493 30.4 -18.0253 
6.5 31.4 -18.25 
3.64507 32.4 -18.0253 
0.860441 33.4 -17.3568 
-1.78533 34.4 -16.2609 
-4.22708 35.4 -14.7646 
-6.4047 36.4 -12.9047 
-8.26456 37.4 -10.7271 
-9.76087 38.4 -8.28533 
-10.8568 39.4 -5.63956 
-11.5253 40.4 -2.85493 
-11.75 41.4 2.99451e-08 
-12.0437 -36.7459 0 
-11.8154 -35.7459 2.90087 
-11.1361 -34.7459 5.73031 
-10.0225 -33.7459 8.41864 
-8.50214 -32.7459 10.8997 
-6.61235 -31.7459 13.1123 
-4.39969 -30.7459 15.0021 
-1.91864 -29.7459 16.5225 
0.769695 -28.7459 17.6361 
3.59913 -27.7459 18.3154 
6.5 -26.7459 18.5437 
9.40087 -25.7459 18.3154 
12.2303 -24.7459 17.6361 
14.9186 -23.7459 16.5225 
17.3997 -22.7459 15.0021 
19.6123 -21.7459 13.1123 
21.5021 -20.7459 10.8997 
23.0225 -19.7459 8.41864 
24.1361 -18.7459 5.73031 
24.8154 -17.7459 2.90087 
25.0437 -16.7459 -7.60674e-09 
24.8154 -15.7459 -2.90087 
24.1361 -14.7459 -5.73031 
23.0225 -13.7459 -8.41864 
21.5021 -12.7459 -10.8997 
19.6123 -11.7459 -13.1123 
17.3997 -10.7459 -15.0021 
14.9186 -9.7459 -16.5225 
12.2303 -8.7459 -17.6361 
9.40087 -7.7459 -18.3154 
6.5 -6.7459 -18.5437 
3.59913 -5.7459 -18.3154 
0.769695 -4.7459 -17.6361 
-1.91864 -3.7459 -16.5225 
-4.39969 -2.7459 -15.0021 
-6.61235 -1.7459 -13.1123 
-8.50214 -0.745905 -10.8997 
-10.0225 0.254095 -8.41864 
-11.1361 1.2541 -5.73031 
-11.8154 2.2541 -2.90087 
-12.0437 3.2541 1.52135e-08 
-11.8154 4.2541 2.90087 
-11.1361 5.2541 5.73031 
-10.0225 6.2541 8.41864 
-8.50214 7.2541 10.8997 
-6.61235 8.2541 13.1123 
-4.39969 9.2541 15.0021 
-1.91864 10.2541 16.5225 
0.769695 11.2541 17.6361 
3.59913 12.2541 18.3154 
6.5 13.2541 18.5437 
9.40087 14.2541 18.3154 
12.2303 15.2541 17.6361 
14.9186 16.2541 16.5225 
17.3997 17.2541 15.0021 
19.6123 18.2541 13.1123 
21.5021 19.2541 10.8997 
23.0225 20.2541 8.41864 
24.1361 21.2541 5.73031 
24.8154 22.2541 2.90087 
25.0437 23.2541 -2.28202e-08 
24.8154 24.2541 -2.90087 
24.1361 25.2541 -5.73031 
23.0225 26.2541 -8.41864 
21.5021 27.2541 -10.8997 
19.6123 28.2541 -13.1123 
17.3997 29.2541 -15.0021 
14.9186 30.2541 -16.5225 
12.2303 31.2541 -17.6361 
9.40087 32.2541 -18.3154 
6.5 33.2541 -18.5437 
3.59913 34.2541 -18.3154 
0.769695 35.2541 -17.6361 
-1.91864 36.2541 -16.5225 
-4.39969 37.2541 -15.0021 
-6.61235 38.2541 -13.1123 
-8.50214 39.2541 -10.8997 
-10.0225 40.2541 -8.41864 
-11.1361 41.2541 -5.73031 
-11.8154 42.2541 -2.90087 
-12.0437 43.2541 3.04269e-08 
-12.8959 -35.0733 0 
-12.6571 -34.0733 3.03419 
-11.9466 -33.0733 5.99366 
-10.7819 -32.0733 8.80555 
-9.19161 -31.0733 11.4006 
-7.21497 -30.0733 13.715 
-4.90062 -29.0733 15.6916 
-2.30555 -28.0733 17.2819 
0.506338 -27.0733 18.4466 
3.46581 -26.0733 19.1571 
6.5 -25.0733 19.3959 
9.53419 -24.0733 19.1571 
12.4937 -23.0733 18.4466 
15.3056 -22.0733 17.2819 
17.9006 -21.0733 15.6916 
20.215 -20.0733 13.715 
22.1916 -19.0733 11.4006 
23.7819 -18.0733 8.80555 
24.9466 -17.0733 5.99366 
25.6571 -16.0733 3.03419 
25.8959 -15.0733 -7.95633e-09 
25.6571 -14.0733 -3.03419 
24.9466 -13.0733 -5.99366 
23.7819 -12.0733 -8.80555 
22.1916 -11.0733 -11.4006 
20.215 -10.0733 -13.715 
17.9006 -9.0733 -15.6916 
15.3056 -8.0733 -17.2819 
12.4937 -7.0733 -18.4466 
9.53419 -6.0733 -19.1571 
6.5 -5.0733 -19.3959 
3.46581 -4.0733 -19.1571 
0.506338 -3.0733 -18.4466 
-2.30555 -2.0733 -17.2819 
-4.90062 -1.0733 -15.6916 
-7.21497 -0.0732956 -13.715 
-9.19161 0.926704 -11.4006 
-10.7819 1.9267 -8.80555 
-11.9466 2.9267 -5.99366 
-12.6571 3.9267 -3.03419 
-12.8959 4.9267 1.59127e-08 
-12.6571 5.9267 3.03419 
-11.9466 6.9267 5.99366 
-10.7819 7.9267 8.80555 
-9.19161 8.9267 11.4006 
-7.21497 9.9267 13.715 
-4.90062 10.9267 15.6916 
-2.30555 11.9267 17.2819 
0.506338 12.9267 18.4466 
3.46581 13.9267 19.1571 
6.5 14.9267 19.3959 
9.53419 15.9267 19.1571 
12.4937 16.9267 18.4466 
15.3056 17.9267 17.2819 
17.9006 18.9267 15.6916 
20.215 19.9267 13.715 
22.1916 20.9267 11.4006 
23.7819 21.9267 8.80555 
24.9466 22.9267 5.99366 
25.6571 23.9267 3.03419 
25.8959 24.9267 -2.3869e-08 
25.6571 25.9267 -3.03419 
24.9466 26.9267 -5.99366 
23.7819 27.9267 -8.80555 
22.1916 28.9267 -11.4006 
20.215 29.9267 -13.715 
17.9006 30.9267 -15.6916 
15.3056 31.9267 -17.2819 
12.4937 32.9267 -18.4466 
9.53419 33.9267 -19.1571 
6.5 34.9267 -19.3959 
3.46581 35.9267 -19.1571 
0.506338 36.9267 -18.4466 
-2.30555 37.9267 -17.2819 
-4.90062 38.9267 -15.6916 
-7.21497 39.9267 -13.715 
-9.19161 40.9267 -11.4006 
-10.7819 41.9267 -8.80555 
-11.9466 42.9267 -5.99366 
-12.6571 43.9267 -3.03419 
-12.8959 44.9267 3.18253e-08 
-14.2233 -33.7459 0 
-13.9682 -32.7459 3.24184 
-13.209 -31.7459 6.40385 
-11.9646 -30.7459 9.40818 
-10.2655 -29.7459 12.1808 
-8.15358 -28.7459 14.6536 
-5.68084 -27.7459 16.7655 
-2.90818 -26.7459 18.4646 
0.0961514 -25.7459 19.709 
3.25816 -24.7459 20.4682 
6.5 -23.7459 20.7233 
9.74184 -22.7459 20.4682 
12.9038 -21.7459 19.709 
15.9082 -20.7459 18.4646 
18.6808 -19.7459 16.7655 
21.1536 -18.7459 14.6536 
23.2655 -17.7459 12.1808 
24.9646 -16.7459 9.40818 
26.209 -15.7459 6.40385 
26.9682 -14.7459 3.24184 
27.2233 -13.7459 -8.50084e-09 
26.9682 -12.7459 -3.24184 
26.209 -11.7459 -6.40385 
24.9646 -10.7459 -9.40818 
23.2655 -9.7459 -12.1808 
21.1536 -8.7459 -14.6536 
18.6808 -7.7459 -16.7655 
15.9082 -6.7459 -18.4646 
12.9038 -5.7459 -19.709 
9.74184 -4.7459 -20.4682 
6.5 -3.7459 -20.7233 
3.25816 -2.7459 -20.4682 
0.0961514 -1.7459 -19.709 
-2.90818 -0.745905 -18.4646 
-5.68084 0.254095 -16.7655 
-8.15358 1.2541 -14.6536 
-10.2655 2.2541 -12.1808 
-11.9646 3.2541 -9.40818 
-13.209 4.2541 -6.40385 
-13.9682 5.2541 -3.24184 
-14.2233 6.2541 1.70017e-08 
-13.9682 7.2541 3.24184 
-13.209 8.2541 6.40385 
-11.9646 9.2541 9.40818 
-10.2655 10.2541 12.1808 
-8.15358 11.2541 14.6536 
-5.68084 12.2541 16.7655 
-2.90818 13.2541 18.4646 
0.0961514 14.2541 19.709 
3.25816 15.2541 20.4682 
6.5 16.2541 20.7233 
9.74184 17.2541 20.4682 
12.9038 18.2541 19.709 
15.9082 19.2541 18.4646 
18.6808 20.2541 16.7655 
21.1536 21.2541 14.6536 
23.2655 22.2541 12.1808 
24.9646 23.2541 9.40818 
26.209 24.2541 6.40385 
26.9682 25.2541 3.24184 
27.2233 26.2541 -2.55025e-08 
26.9682 27.2541 -3.24184 
26.209 28.2541 -6.40385 
24.9646 29.2541 -9.40818 
23.2655 30.2541 -12.1808 
21.1536 31.2541 -14.6536 
18.6808 32.2541 -16.7655 
15.9082 33.2541 -18.4646 
12.9038 34.2541 -19.709 
9.74184 35.2541 -20.4682 
6.5 36.2541 -20.7233 
3.25816 37.2541 -20.4682 
0.0961514 38.2541 -19.709 
-2.90818 39.2541 -18.4646 
-5.68084 40.2541 -16.7655 
-8.15358 41.2541 -14.6536 
-10.2655 42.2541 -12.1808 
-11.9646 43.2541 -9.40818 
-13.209 44.2541 -6.40385 
-13.9682 45.2541 -3.24184 
-14.2233 46.2541 3.40033e-08 
-15.8959 -32.8937 0 
-15.6202 -31.8937 3.50349 
-14.7998 -30.8937 6.92071 
-13.4549 -29.8937 10.1675 
-11.6187 -28.8937 13.164 
-9.33629 -27.8937 15.8363 
-6.66398 -26.8937 18.1187 
-3.66752 -25.8937 19.9549 
-0.420712 -24.8937 21.2998 
2.99651 -23.8937 22.1202 
6.5 -22.8937 22.3959 
10.0035 -21.8937 22.1202 
13.4207 -20.8937 21.2998 
16.6675 -19.8937 19.9549 
19.664 -18.8937 18.1187 
22.3363 -17.8937 15.8363 
24.6187 -16.8937 13.164 
26.4549 -15.8937 10.1675 
27.7998 -14.8937 6.92071 
28.6202 -13.8937 3.50349 
28.8959 -12.8937 -9.18695e-09 
28.6202 -11.8937 -3.50349 
27.7998 -10.8937 -6.92071 
26.4549 -9.89367 -10.1675 
24.6187 -8.89367 -13.164 
22.3363 -7.89367 -15.8363 
19.664 -6.89367 -18.1187 
16.6675 -5.89367 -19.9549 
13.4207 -4.89367 -21.2998 
10.0035 -3.89367 -22.1202 
6.5 -2.89367 -22.3959 
2.99651 -1.89367 -22.1202 
-0.420712 -0.893667 -21.2998 
-3.66752 0.106333 -19.9549 
-6.66398 1.10633 -18.1187 
-9.33629 2.10633 -15.8363 
-11.6187 3.10633 -13.164 
-13.4549 4.10633 -10.1675 
-14.7998 5.10633 -6.92071 
-15.6202 6.10633 -3.50349 
-15.8959 7.10633 1.83739e-08 
-15.6202 8.10633 3.50349 
-14.7998 9.10633 6.92071 
-13.4549 10.1063 10.1675 
-11.6187 11.1063 13.164 
-9.33629 12.1063 15.8363 
-6.66398 13.1063 18.1187 
-3.66752 14.1063 19.9549 
-0.420712 15.1063 21.2998 
2.99651 16.1063 22.1202 
6.5 17.1063 22.3959 
10.0035 18.1063 22.1202 
13.4207 19.1063 21.2998 
16.6675 20.1063 19.9549 
19.664 21.1063 18.1187 
22.3363 22.1063 15.8363 
24.6187 23.1063 13.164 
26.4549 24.1063 10.1675 
27.7998 25.1063 6.92071 
28.6202 26.1063 3.50349 
28.8959 27.1063 -2.75609e-08 
28.6202 28.1063 -3.50349 
27.7998 29.1063 -6.92071 
26.4549 30.1063 -10.1675 
24.6187 31.1063 -13.164 
22.3363 32.1063 -15.8363 
19.664 33.1063 -18.1187 
16.6675 34.1063 -19.9549 
13.4207 35.1063 -21.2998 
10.0035 36.1063 -22.1202 
6.5 37.1063 -22.3959 
2.99651 38.1063 -22.1202 
-0.420712 39.1063 -21.2998 
-3.66752 40.1063 -19.9549 
-6.66398 41.1063 -18.1187 
-9.33629 42.1063 -15.8363 
-11.6187 43.1063 -13.164 
-13.4549 44.1063 -10.1675 
-14.7998 45.1063 -6.92071 
-15.6202 46.1063 -3.50349 
-15.8959 47.1063 3.67478e-08 
30.75 -32.35 -7.28117e-09 
32.6041 -32.6437 -8.04174e-09 
30.4514 -31.35 -3.79354 
32.2827 -31.6437 -4.08358 
29.5631 -30.35 -7.49366 
31.3265 -30.6437 -8.06661 
28.1069 -29.35 -11.0093 
29.7589 -29.6437 -11.851 
26.1187 -28.35 -14.2538 
27.6187 -28.6437 -15.3436 
23.6473 -27.35 -17.1473 
24.9584 -27.6437 -18.4584 
20.7538 -26.35 -19.6187 
21.8436 -26.6437 -21.1187 
17.5093 -25.35 -21.6069 
18.351 -25.6437 -23.2589 
13.9937 -24.35 -23.0631 
14.5666 -24.6437 -24.8265 
10.2935 -23.35 -23.9514 
10.5836 -23.6437 -25.7827 
6.5 -22.35 -24.25 
6.5 -22.6437 -26.1041 
2.70646 -21.35 -23.9514 
2.41642 -21.6437 -25.7827 
-0.993662 -20.35 -23.0631 
-1.56661 -20.6437 -24.8265 
-4.50927 -19.35 -21.6069 
-5.35101 -19.6437 -23.2589 
-7.75379 -18.35 -19.6187 
-8.84361 -18.6437 -21.1187 
-10.6473 -17.35 -17.1473 
-11.9584 -17.6437 -18.4584 
-13.1187 -16.35 -14.2538 
-14.6187 -16.6437 -15.3436 
-15.1069 -15.35 -11.0093 
-16.7589 -15.6437 -11.851 
-16.5631 -14.35 -7.49366 
-18.3265 -14.6437 -8.06661 
-17.4514 -13.35 -3.79354 
-19.2827 -13.6437 -4.08358 
-17.75 -12.35 2.25614e-08 
-19.6041 -12.6437 2.40825e-08 
-17.4514 -11.35 3.79354 
-19.2827 -11.6437 4.08358 
-16.5631 -10.35 7.49366 
-18.3265 -10.6437 8.06661 
-15.1069 -9.35001 11.0093 
-16.7589 -9.64367 11.851 
-13.1187 -8.35001 14.2538 
-14.6187 -8.64367 15.3436 
-10.6473 -7.35001 17.1473 
-11.9584 -7.64367 18.4584 
-7.75379 -6.35001 19.6187 
-8.84361 -6.64367 21.1187 
-4.50927 -5.35001 21.6069 
-5.35101 -5.64367 23.2589 
-0.993662 -4.35001 23.0631 
-1.56661 -4.64367 24.8265 
2.70646 -3.35001 23.9514 
2.41642 -3.64367 25.7827 
6.5 -2.35001 24.25 
6.5 -2.64367 26.1041 
10.2935 -1.35001 23.9514 
10.5836 -1.64367 25.7827 
13.9937 -0.350008 23.0631 
14.5666 -0.643667 24.8265 
17.5093 0.649992 21.6069 
18.351 0.356333 23.2589 
20.7538 1.64999 19.6187 
21.8436 1.35633 21.1187 
23.6473 2.64999 17.1473 
24.9584 2.35633 18.4584 
26.1187 3.64999 14.2538 
27.6187 3.35633 15.3436 
28.1069 4.64999 11.0093 
29.7589 4.35633 11.851 
29.5631 5.64999 7.49366 
31.3265 5.35633 8.06661 
30.4514 6.64999 3.79354 
32.2827 6.35633 4.08358 
30.75 7.64999 -2.71762e-08 
32.6041 7.35633 -2.94579e-08 
30.4514 8.64999 -3.79354 
32.2827 8.35633 -4.08358 
29.5631 9.64999 -7.49366 
31.3265 9.35633 -8.06661 
28.1069 10.65 -11.0093 
29.7589 10.3563 -11.851 
26.1187 11.65 -14.2538 
27.6187 11.3563 -15.3436 
23.6473 12.65 -17.1473 
24.9584 12.3563 -18.4584 
20.7538 13.65 -19.6187 
21.8436 13.3563 -21.1187 
17.5093 14.65 -21.6069 
18.351 14.3563 -23.2589 
13.9937 15.65 -23.0631 
14.5666 15.3563 -24.8265 
10.2935 16.65 -23.9514 
10.5836 16.3563 -25.7827 
6.5 17.65 -24.25 
6.5 17.3563 -26.1041 
2.70646 18.65 -23.9514 
2.41642 18.3563 -25.7827 
-0.993662 19.65 -23.0631 
-1.56661 19.3563 -24.8265 
-4.50927 20.65 -21.6069 
-5.35101 20.3563 -23.2589 
-7.75379 21.65 -19.6187 
-8.84361 21.3563 -21.1187 
-10.6473 22.65 -17.1473 
-11.9584 22.3563 -18.4584 
-13.1187 23.65 -14.2538 
-14.6187 23.3563 -15.3436 
-15.1069 24.65 -11.0093 
-16.7589 24.3563 -11.851 
-16.5631 25.65 -7.49366 
-18.3265 25.3563 -8.06661 
-17.4514 26.65 -3.79354 
-19.2827 26.3563 -4.08358 
-17.75 27.65 4.24564e-08 
-19.6041 27.3563 4.54987e-08 
-17.4514 28.65 3.79354 
-19.2827 28.3563 4.08358 
-16.5631 29.65 7.49366 
-18.3265 29.3563 8.06661 
-15.1069 30.65 11.0093 
-16.7589 30.3563 11.851 
-13.1187 31.65 14.2538 
-14.6187 31.3563 15.3436 
-10.6473 32.65 17.1473 
-11.9584 32.3563 18.4584 
-7.75379 33.65 19.6187 
-8.84361 33.3563 21.1187 
-4.50927 34.65 21.6069 
-5.35101 34.3563 23.2589 
-0.993662 35.65 23.0631 
-1.56661 35.3563 24.8265 
2.70646 36.65 23.9514 
2.41642 36.3563 25.7827 
6.5 37.65 24.25 
6.5 37.3563 26.1041 
10.2935 38.65 23.9514 
10.5836 38.3563 25.7827 
13.9937 39.65 23.0631 
14.5666 39.3563 24.8265 
17.5093 40.65 21.6069 
18.351 40.3563 23.2589 
20.7538 41.65 19.6187 
21.8436 41.3563 21.1187 
23.6473 42.65 17.1473 
24.9584 42.3563 18.4584 
26.1187 43.65 14.2538 
27.6187 43.3563 15.3436 
28.1069 44.65 11.0093 
29.7589 44.3563 11.851 
29.5631 45.65 7.49366 
31.3265 45.3563 8.06661 
30.4514 46.65 3.79354 
32.2827 46.3563 4.08358 
30.75 47.65 -4.70712e-08 
32.6041 47.3563 -5.08741e-08 
34.2767 -33.4959 -8.72785e-09 
33.9347 -32.4959 -4.34523 
32.9172 -31.4959 -8.58348 
31.2492 -30.4959 -12.6104 
28.9718 -29.4959 -16.3267 
26.1411 -28.4959 -19.6411 
22.8267 -27.4959 -22.4718 
19.1104 -26.4959 -24.7492 
15.0835 -25.4959 -26.4172 
10.8452 -24.4959 -27.4347 
6.5 -23.4959 -27.7767 
2.15477 -22.4959 -27.4347 
-2.08348 -21.4959 -26.4172 
-6.11036 -20.4959 -24.7492 
-9.82674 -19.4959 -22.4718 
-13.1411 -18.4959 -19.6411 
-15.9718 -17.4959 -16.3267 
-18.2492 -16.4959 -12.6104 
-19.9172 -15.4959 -8.58348 
-20.9347 -14.4959 -4.34523 
-21.2767 -13.4959 2.54547e-08 
-20.9347 -12.4959 4.34523 
-19.9172 -11.4959 8.58348 
-18.2492 -10.4959 12.6104 
-15.9718 -9.4959 16.3267 
-13.1411 -8.4959 19.6411 
-9.82674 -7.4959 22.4718 
-6.11036 -6.4959 24.7492 
-2.08348 -5.4959 26.4172 
2.15477 -4.4959 27.4347 
6.5 -3.4959 27.7767 
10.8452 -2.4959 27.4347 
15.0835 -1.4959 26.4172 
19.1104 -0.495905 24.7492 
22.8267 0.504095 22.4718 
26.1411 1.5041 19.6411 
28.9718 2.5041 16.3267 
31.2492 3.5041 12.6104 
32.9172 4.5041 8.58348 
33.9347 5.5041 4.34523 
34.2767 6.5041 -3.15162e-08 
33.9347 7.5041 -4.34523 
32.9172 8.5041 -8.58348 
31.2492 9.5041 -12.6104 
28.9718 10.5041 -16.3267 
26.1411 11.5041 -19.6411 
22.8267 12.5041 -22.4718 
19.1104 13.5041 -24.7492 
15.0835 14.5041 -26.4172 
10.8452 15.5041 -27.4347 
6.5 16.5041 -27.7767 
2.15477 17.5041 -27.4347 
-2.08348 18.5041 -26.4172 
-6.11036 19.5041 -24.7492 
-9.82674 20.5041 -22.4718 
-13.1411 21.5041 -19.6411 
-15.9718 22.5041 -16.3267 
-18.2492 23.5041 -12.6104 
-19.9172 24.5041 -8.58348 
-20.9347 25.5041 -4.34523 
-21.2767 26.5041 4.82431e-08 
-20.9347 27.5041 4.34523 
-19.9172 28.5041 8.58348 
-18.2492 29.5041 12.6104 
-15.9718 30.5041 16.3267 
-13.1411 31.5041 19.6411 
-9.82674 32.5041 22.4718 
-6.11036 33.5041 24.7492 
-2.08348 34.5041 26.4172 
2.15477 35.5041 27.4347 
6.5 36.5041 27.7767 
10.8452 37.5041 27.4347 
15.0835 38.5041 26.4172 
19.1104 39.5041 24.7492 
22.8267 40.5041 22.4718 
26.1411 41.5041 19.6411 
28.9718 42.5041 16.3267 
31.2492 43.5041 12.6104 
32.9172 44.5041 8.58348 
33.9347 45.5041 4.34523 
34.2767 46.5041 -5.43046e-08 
35.6041 -34.8233 -9.27236e-09 
35.2458 -33.8233 -4.55288 
34.1796 -32.8233 -8.99366 
32.4319 -31.8233 -13.213 
30.0457 -30.8233 -17.107 
27.0797 -29.8233 -20.5797 
23.607 -28.8233 -23.5457 
19.713 -27.8233 -25.9319 
15.4937 -26.8233 -27.6796 
11.0529 -25.8233 -28.7458 
6.5 -24.8233 -29.1041 
1.94711 -23.8233 -28.7458 
-2.49366 -22.8233 -27.6796 
-6.71299 -21.8233 -25.9319 
-10.607 -20.8233 -23.5457 
-14.0797 -19.8233 -20.5797 
-17.0457 -18.8233 -17.107 
-19.4319 -17.8233 -13.213 
-21.1796 -16.8233 -8.99366 
-22.2458 -15.8233 -4.55288 
-22.6041 -14.8233 2.65438e-08 
-22.2458 -13.8233 4.55288 
-21.1796 -12.8233 8.99366 
-19.4319 -11.8233 13.213 
-17.0457 -10.8233 17.107 
-14.0797 -9.8233 20.5797 
-10.607 -8.8233 23.5457 
-6.71299 -7.8233 25.9319 
-2.49366 -6.8233 27.6796 
1.94711 -5.8233 28.7458 
6.5 -4.8233 29.1041 
11.0529 -3.8233 28.7458 
15.4937 -2.8233 27.6796 
19.713 -1.8233 25.9319 
23.607 -0.823296 23.5457 
27.0797 0.176704 20.5797 
30.0457 1.1767 17.107 
32.4319 2.1767 13.213 
34.1796 3.1767 8.99366 
35.2458 4.1767 4.55288 
35.6041 5.1767 -3.31498e-08 
35.2458 6.1767 -4.55288 
34.1796 7.1767 -8.99366 
32.4319 8.1767 -13.213 
30.0457 9.1767 -17.107 
27.0797 10.1767 -20.5797 
23.607 11.1767 -23.5457 
19.713 12.1767 -25.9319 
15.4937 13.1767 -27.6796 
11.0529 14.1767 -28.7458 
6.5 15.1767 -29.1041 
1.94711 16.1767 -28.7458 
-2.49366 17.1767 -27.6796 
-6.71299 18.1767 -25.9319 
-10.607 19.1767 -23.5457 
-14.0797 20.1767 -20.5797 
-17.0457 21.1767 -17.107 
-19.4319 22.1767 -13.213 
-21.1796 23.1767 -8.99366 
-22.2458 24.1767 -4.55288 
-22.6041 25.1767 5.04212e-08 
-22.2458 26.1767 4.55288 
-21.1796 27.1767 8.99366 
-19.4319 28.1767 13.213 
-17.0457 29.1767 17.107 
-14.0797 30.1767 20.5797 
-10.607 31.1767 23.5457 
-6.71299 32.1767 25.9319 
-2.49366 33.1767 27.6796 
1.94711 34.1767 28.7458 
6.5 35.1767 29.1041 
11.0529 36.1767 28.7458 
15.4937 37.1767 27.6796 
19.713 38.1767 25.9319 
23.607 39.1767 23.5457 
27.0797 40.1767 20.5797 
30.0457 41.1767 17.107 
32.4319 42.1767 13.213 
34.1796 43.1767 8.99366 
35.2458 44.1767 4.55288 
35.6041 45.1767 -5.70272e-08 
36.4563 -36.4959 -9.62195e-09 
36.0875 -35.4959 -4.6862 
34.9902 -34.4959 -9.25702 
33.1913 -33.4959 -13.5999 
30.7352 -32.4959 -17.6079 
27.6823 -31.4959 -21.1823 
24.1079 -30.4959 -24.2352 
20.0999 -29.4959 -26.6913 
15.757 -28.4959 -28.4902 
11.1862 -27.4959 -29.5875 
6.5 -26.4959 -29.9563 
1.8138 -25.4959 -29.5875 
-2.75702 -24.4959 -28.4902 
-7.09989 -23.4959 -26.6913 
-11.1079 -22.4959 -24.2352 
-14.6823 -21.4959 -21.1823 
-17.7352 -20.4959 -17.6079 
-20.1913 -19.4959 -13.5999 
-21.9902 -18.4959 -9.25702 
-23.0875 -17.4959 -4.6862 
-23.4563 -16.4959 2.72429e-08 
-23.0875 -15.4959 4.6862 
-21.9902 -14.4959 9.25702 
-20.1913 -13.4959 13.5999 
-17.7352 -12.4959 17.6079 
-14.6823 -11.4959 21.1823 
-11.1079 -10.4959 24.2352 
-7.09989 -9.4959 26.6913 
-2.75702 -8.4959 28.4902 
1.8138 -7.4959 29.5875 
6.5 -6.4959 29.9563 
11.1862 -5.4959 29.5875 
15.757 -4.4959 28.4902 
20.0999 -3.4959 26.6913 
24.1079 -2.4959 24.2352 
27.6823 -1.4959 21.1823 
30.7352 -0.495905 17.6079 
33.1913 0.504095 13.5999 
34.9902 1.5041 9.25702 
36.0875 2.5041 4.6862 
36.4563 3.5041 -3.41985e-08 
36.0875 4.5041 -4.6862 
34.9902 5.5041 -9.25702 
33.1913 6.5041 -13.5999 
30.7352 7.5041 -17.6079 
27.6823 8.5041 -21.1823 
24.1079 9.5041 -24.2352 
20.0999 10.5041 -26.6913 
15.757 11.5041 -28.4902 
11.1862 12.5041 -29.5875 
6.5 13.5041 -29.9563 
1.8138 14.5041 -29.5875 
-2.75702 15.5041 -28.4902 
-7.09989 16.5041 -26.6913 
-11.1079 17.5041 -24.2352 
-14.6823 18.5041 -21.1823 
-17.7352 19.5041 -17.6079 
-20.1913 20.5041 -13.5999 
-21.9902 21.5041 -9.25702 
-23.0875 22.5041 -4.6862 
-23.4563 23.5041 5.18195e-08 
-23.0875 24.5041 4.6862 
-21.9902 25.5041 9.25702 
-20.1913 26.5041 13.5999 
-17.7352 27.5041 17.6079 
-14.6823 28.5041 21.1823 
-11.1079 29.5041 24.2352 
-7.09989 30.5041 26.6913 
-2.75702 31.5041 28.4902 
1.8138 32.5041 29.5875 
6.5 33.5041 29.9563 
11.1862 34.5041 29.5875 
15.757 35.5041 28.4902 
20.0999 36.5041 26.6913 
24.1079 37.5041 24.2352 
27.6823 38.5041 21.1823 
30.7352 39.5041 17.6079 
33.1913 40.5041 13.5999 
34.9902 41.5041 9.25702 
36.0875 42.5041 4.6862 
36.4563 43.5041 -5.87751e-08 
36.75 -38.35 -9.74241e-09 
36.3776 -37.35 -4.73214 
35.2695 -36.35 -9.34776 
33.4529 -35.35 -13.7332 
30.9728 -34.35 -17.7805 
27.89 -33.35 -21.39 
24.2805 -32.35 -24.4728 
20.2332 -31.35 -26.9529 
15.8478 -30.35 -28.7695 
11.2321 -29.35 -29.8776 
6.5 -28.35 -30.25 
1.76786 -27.35 -29.8776 
-2.84776 -26.35 -28.7695 
-7.23321 -25.35 -26.9529 
-11.2805 -24.35 -24.4728 
-14.89 -23.35 -21.39 
-17.9728 -22.35 -17.7805 
-20.4529 -21.35 -13.7332 
-22.2695 -20.35 -9.34776 
-23.3776 -19.35 -4.73214 
-23.75 -18.35 2.74839e-08 
-23.3776 -17.35 4.73214 
-22.2695 -16.35 9.34776 
-20.4529 -15.35 13.7332 
-17.9728 -14.35 17.7805 
-14.89 -13.35 21.39 
-11.2805 -12.35 24.4728 
-7.23321 -11.35 26.9529 
-2.84776 -10.35 28.7695 
1.76786 -9.35001 29.8776 
6.5 -8.35001 30.25 
11.2321 -7.35001 29.8776 
15.8478 -6.35001 28.7695 
20.2332 -5.35001 26.9529 
24.2805 -4.35001 24.4728 
27.89 -3.35001 21.39 
30.9728 -2.35001 17.7805 
33.4529 -1.35001 13.7332 
35.2695 -0.350006 9.34776 
36.3776 0.649994 4.73214 
36.75 1.64999 -3.45599e-08 
36.3776 2.64999 -4.73214 
35.2695 3.64999 -9.34776 
33.4529 4.64999 -13.7332 
30.9728 5.64999 -17.7805 
27.89 6.64999 -21.39 
24.2805 7.64999 -24.4728 
20.2332 8.64999 -26.9529 
15.8478 9.64999 -28.7695 
11.2321 10.65 -29.8776 
6.5 11.65 -30.25 
1.76786 12.65 -29.8776 
-2.84776 13.65 -28.7695 
-7.23321 14.65 -26.9529 
-11.2805 15.65 -24.4728 
-14.89 16.65 -21.39 
-17.9728 17.65 -17.7805 
-20.4529 18.65 -13.7332 
-22.2695 19.65 -9.34776 
-23.3776 20.65 -4.73214 
-23.75 21.65 5.23014e-08 
-23.3776 22.65 4.73214 
-22.2695 23.65 9.34776 
-20.4529 24.65 13.7332 
-17.9728 25.65 17.7805 
-14.89 26.65 21.39 
-11.2805 27.65 24.4728 
-7.23321 28.65 26.9529 
-2.84776 29.65 28.7695 
1.76786 30.65 29.8776 
6.5 31.65 30.25 
11.2321 32.65 29.8776 
15.8478 33.65 28.7695 
20.2332 34.65 26.9529 
24.2805 35.65 24.4728 
27.89 36.65 21.39 
30.9728 37.65 17.7805 
33.4529 38.65 13.7332 
35.2695 39.65 9.34776 
36.3776 40.65 4.73214 
36.75 41.65 -5.93774e-08 
36.4563 -40.2041 -9.62195e-09 
36.0875 -39.2041 -4.6862 
34.9902 -38.2041 -9.25702 
33.1913 -37.2041 -13.5999 
30.7352 -36.2041 -17.6079 
27.6823 -35.2041 -21.1823 
24.1079 -34.2041 -24.2352 
20.0999 -33.2041 -26.6913 
15.757 -32.2041 -28.4902 
11.1862 -31.2041 -29.5875 
6.5 -30.2041 -29.9563 
1.8138 -29.2041 -29.5875 
-2.75702 -28.2041 -28.4902 
-7.09989 -27.2041 -26.6913 
-11.1079 -26.2041 -24.2352 
-14.6823 -25.2041 -21.1823 
-17.7352 -24.2041 -17.6079 
-20.1913 -23.2041 -13.5999 
-21.9902 -22.2041 -9.25702 
-23.0875 -21.2041 -4.6862 
-23.4563 -20.2041 2.72429e-08 
-23.0875 -19.2041 4.6862 
-21.9902 -18.2041 9.25702 
-20.1913 -17.2041 13.5999 
-17.7352 -16.2041 17.6079 
-14.6823 -15.2041 21.1823 
-11.1079 -14.2041 24.2352 
-7.09989 -13.2041 26.6913 
-2.75702 -12.2041 28.4902 
1.8138 -11.2041 29.5875 
6.5 -10.2041 29.9563 
11.1862 -9.20411 29.5875 
15.757 -8.20411 28.4902 
20.0999 -7.20411 26.6913 
24.1079 -6.20411 24.2352 
27.6823 -5.20411 21.1823 
30.7352 -4.20411 17.6079 
33.1913 -3.20411 13.5999 
34.9902 -2.20411 9.25702 
36.0875 -1.20411 4.6862 
36.4563 -0.204107 -3.41985e-08 
36.0875 0.795893 -4.6862 
34.9902 1.79589 -9.25702 
33.1913 2.79589 -13.5999 
30.7352 3.79589 -17.6079 
27.6823 4.79589 -21.1823 
24.1079 5.79589 -24.2352 
20.0999 6.79589 -26.6913 
15.757 7.79589 -28.4902 
11.1862 8.79589 -29.5875 
6.5 9.79589 -29.9563 
1.8138 10.7959 -29.5875 
-2.75702 11.7959 -28.4902 
-7.09989 12.7959 -26.6913 
-11.1079 13.7959 -24.2352 
-14.6823 14.7959 -21.1823 
-17.7352 15.7959 -17.6079 
-20.1913 16.7959 -13.5999 
-21.9902 17.7959 -9.25702 
-23.0875 18.7959 -4.6862 
-23.4563 19.7959 5.18195e-08 
-23.0875 20.7959 4.6862 
-21.9902 21.7959 9.25702 
-20.1913 22.7959 13.5999 
-17.7352 23.7959 17.6079 
-14.6823 24.7959 21.1823 
-11.1079 25.7959 24.2352 
-7.09989 26.7959 26.6913 
-2.75702 27.7959 28.4902 
1.8138 28.7959 29.5875 
6.5 29.7959 29.9563 
11.1862 30.7959 29.5875 
15.757 31.7959 28.4902 
20.0999 32.7959 26.6913 
24.1079 33.7959 24.2352 
27.6823 34.7959 21.1823 
30.7352 35.7959 17.6079 
33.1913 36.7959 13.5999 
34.9902 37.7959 9.25702 
36.0875 38.7959 4.6862 
36.4563 39.7959 -5.87751e-08 
35.6041 -41.8767 -9.27236e-09 
35.2458 -40.8767 -4.55288 
34.1796 -39.8767 -8.99366 
32.4319 -38.8767 -13.213 
30.0457 -37.8767 -17.107 
27.0797 -36.8767 -20.5797 
23.607 -35.8767 -23.5457 
19.713 -34.8767 -25.9319 
15.4937 -33.8767 -27.6796 
11.0529 -32.8767 -28.7458 
6.5 -31.8767 -29.1041 
1.94711 -30.8767 -28.7458 
-2.49366 -29.8767 -27.6796 
-6.71299 -28.8767 -25.9319 
-10.607 -27.8767 -23.5457 
-14.0797 -26.8767 -20.5797 
-17.0457 -25.8767 -17.107 
-19.4319 -24.8767 -13.213 
-21.1796 -23.8767 -8.99366 
-22.2458 -22.8767 -4.55288 
-22.6041 -21.8767 2.65438e-08 
-22.2458 -20.8767 4.55288 
-21.1796 -19.8767 8.99366 
-19.4319 -18.8767 13.213 
-17.0457 -17.8767 17.107 
-14.0797 -16.8767 20.5797 
-10.607 -15.8767 23.5457 
-6.71299 -14.8767 25.9319 
-2.49366 -13.8767 27.6796 
1.94711 -12.8767 28.7458 
6.5 -11.8767 29.1041 
11.0529 -10.8767 28.7458 
15.4937 -9.87672 27.6796 
19.713 -8.87672 25.9319 
23.607 -7.87672 23.5457 
27.0797 -6.87672 20.5797 
30.0457 -5.87672 17.107 
32.4319 -4.87672 13.213 
34.1796 -3.87672 8.99366 
35.2458 -2.87672 4.55288 
35.6041 -1.87672 -3.31498e-08 
35.2458 -0.876717 -4.55288 
34.1796 0.123283 -8.99366 
32.4319 1.12328 -13.213 
30.0457 2.12328 -17.107 
27.0797 3.12328 -20.5797 
23.607 4.12328 -23.5457 
19.713 5.12328 -25.9319 
15.4937 6.12328 -27.6796 
11.0529 7.12328 -28.7458 
6.5 8.12328 -29.1041 
1.94711 9.12328 -28.7458 
-2.49366 10.1233 -27.6796 
-6.71299 11.1233 -25.9319 
-10.607 12.1233 -23.5457 
-14.0797 13.1233 -20.5797 
-17.0457 14.1233 -17.107 
-19.4319 15.1233 -13.213 
-21.1796 16.1233 -8.99366 
-22.2458 17.1233 -4.55288 
-22.6041 18.1233 5.04212e-08 
-22.2458 19.1233 4.55288 
-21.1796 20.1233 8.99366 
-19.4319 21.1233 13.213 
-17.0457 22.1233 17.107 
-14.0797 23.1233 20.5797 
-10.607 24.1233 23.5457 
-6.71299 25.1233 25.9319 
-2.49366 26.1233 27.6796 
1.94711 27.1233 28.7458 
6.5 28.1233 29.1041 
11.0529 29.1233 28.7458 
15.4937 30.1233 27.6796 
19.713 31.1233 25.9319 
23.607 32.1233 23.5457 
27.0797 33.1233 20.5797 
30.0457 34.1233 17.107 
32.4319 35.1233 13.213 
34.1796 36.1233 8.99366 
35.2458 37.1233 4.55288 
35.6041 38.1233 -5.70272e-08 
34.2767 -43.2041 -8.72785e-09 
33.9347 -42.2041 -4.34523 
32.9172 -41.2041 -8.58348 
31.2492 -40.2041 -12.6104 
28.9718 -39.2041 -16.3267 
26.1411 -38.2041 -19.6411 
22.8267 -37.2041 -22.4718 
19.1104 -36.2041 -24.7492 
15.0835 -35.2041 -26.4172 
10.8452 -34.2041 -27.4347 
6.5 -33.2041 -27.7767 
2.15477 -32.2041 -27.4347 
-2.08348 -31.2041 -26.4172 
-6.11036 -30.2041 -24.7492 
-9.82674 -29.2041 -22.4718 
-13.1411 -28.2041 -19.6411 
-15.9718 -27.2041 -16.3267 
-18.2492 -26.2041 -12.6104 
-19.9172 -25.2041 -8.58348 
-20.9347 -24.2041 -4.34523 
-21.2767 -23.2041 2.54547e-08 
-20.9347 -22.2041 4.34523 
-19.9172 -21.2041 8.58348 
-18.2492 -20.2041 12.6104 
-15.9718 -19.2041 16.3267 
-13.1411 -18.2041 19.6411 
-9.82674 -17.2041 22.4718 
-6.11036 -16.2041 24.7492 
-2.08348 -15.2041 26.4172 
2.15477 -14.2041 27.4347 
6.5 -13.2041 27.7767 
10.8452 -12.2041 27.4347 
15.0835 -11.2041 26.4172 
19.1104 -10.2041 24.7492 
22.8267 -9.20411 22.4718 
26.1411 -8.20411 19.6411 
28.9718 -7.20411 16.3267 
31.2492 -6.20411 12.6104 
32.9172 -5.20411 8.58348 
33.9347 -4.20411 4.34523 
34.2767 -3.20411 -3.15162e-08 
33.9347 -2.20411 -4.34523 
32.9172 -1.20411 -8.58348 
31.2492 -0.204105 -12.6104 
28.9718 0.795895 -16.3267 
26.1411 1.79589 -19.6411 
22.8267 2.79589 -22.4718 
19.1104 3.79589 -24.7492 
15.0835 4.79589 -26.4172 
10.8452 5.79589 -27.4347 
6.5 6.79589 -27.7767 
2.15477 7.79589 -27.4347 
-2.08348 8.79589 -26.4172 
-6.11036 9.79589 -24.7492 
-9.82674 10.7959 -22.4718 
-13.1411 11.7959 -19.6411 
-15.9718 12.7959 -16.3267 
-18.2492 13.7959 -12.6104 
-19.9172 14.7959 -8.58348 
-20.9347 15.7959 -4.34523 
-21.2767 16.7959 4.82431e-08 
-20.9347 17.7959 4.34523 
-19.9172 18.7959 8.58348 
-18.2492 19.7959 12.6104 
-15.9718 20.7959 16.3267 
-13.1411 21.7959 19.6411 
-9.82674 22.7959 22.4718 
-6.11036 23.7959 24.7492 
-2.08348 24.7959 26.4172 
2.15477 25.7959 27.4347 
6.5 26.7959 27.7767 
10.8452 27.7959 27.4347 
15.0835 28.7959 26.4172 
19.1104 29.7959 24.7492 
22.8267 30.7959 22.4718 
26.1411 31.7959 19.6411 
28.9718 32.7959 16.3267 
31.2492 33.7959 12.6104 
32.9172 34.7959 8.58348 
33.9347 35.7959 4.34523 
34.2767 36.7959 -5.43046e-08 
32.6041 -44.0563 -8.04174e-09 
32.2827 -43.0563 -4.08358 
31.3265 -42.0563 -8.06661 
29.7589 -41.0563 -11.851 
27.6187 -40.0563 -15.3436 
24.9584 -39.0563 -18.4584 
21.8436 -38.0563 -21.1187 
18.351 -37.0563 -23.2589 
14.5666 -36.0563 -24.8265 
10.5836 -35.0563 -25.7827 
6.5 -34.0563 -26.1041 
2.41642 -33.0563 -25.7827 
-1.56661 -32.0563 -24.8265 
-5.35101 -31.0563 -23.2589 
-8.84361 -30.0563 -21.1187 
-11.9584 -29.0563 -18.4584 
-14.6187 -28.0563 -15.3436 
-16.7589 -27.0563 -11.851 
-18.3265 -26.0563 -8.06661 
-19.2827 -25.0563 -4.08358 
-19.6041 -24.0563 2.40825e-08 
-19.2827 -23.0563 4.08358 
-18.3265 -22.0563 8.06661 
-16.7589 -21.0563 11.851 
-14.6187 -20.0563 15.3436 
-11.9584 -19.0563 18.4584 
-8.84361 -18.0563 21.1187 
-5.35101 -17.0563 23.2589 
-1.56661 -16.0563 24.8265 
2.41642 -15.0563 25.7827 
6.5 -14.0563 26.1041 
10.5836 -13.0563 25.7827 
14.5666 -12.0563 24.8265 
18.351 -11.0563 23.2589 
21.8436 -10.0563 21.1187 
24.9584 -9.05635 18.4584 
27.6187 -8.05635 15.3436 
29.7589 -7.05635 11.851 
31.3265 -6.05635 8.06661 
32.2827 -5.05635 4.08358 
32.6041 -4.05635 -2.94579e-08 
32.2827 -3.05635 -4.08358 
31.3265 -2.05635 -8.06661 
29.7589 -1.05635 -11.851 
27.6187 -0.0563469 -15.3436 
24.9584 0.943653 -18.4584 
21.8436 1.94365 -21.1187 
18.351 2.94365 -23.2589 
14.5666 3.94365 -24.8265 
10.5836 4.94365 -25.7827 
6.5 5.94365 -26.1041 
2.41642 6.94365 -25.7827 
-1.56661 7.94365 -24.8265 
-5.35101 8.94365 -23.2589 
-8.84361 9.94365 -21.1187 
-11.9584 10.9437 -18.4584 
-14.6187 11.9437 -15.3436 
-16.7589 12.9437 -11.851 
-18.3265 13.9437 -8.06661 
-19.2827 14.9437 -4.08358 
-19.6041 15.9437 4.54987e-08 
-19.2827 16.9437 4.08358 
-18.3265 17.9437 8.06661 
-16.7589 18.9437 11.851 
-14.6187 19.9437 15.3436 
-11.9584 20.9437 18.4584 
-8.84361 21.9437 21.1187 
-5.35101 22.9437 23.2589 
-1.56661 23.9437 24.8265 
2.41642 24.9437 25.7827 
6.5 25.9437 26.1041 
10.5836 26.9437 25.7827 
14.5666 27.9437 24.8265 
18.351 28.9437 23.2589 
21.8436 29.9437 21.1187 
24.9584 30.9437 18.4584 
27.6187 31.9437 15.3436 
29.7589 32.9437 11.851 
31.3265 33.9437 8.06661 
32.2827 34.9437 4.08358 
32.6041 35.9437 -5.08741e-08 
30.75 -44.35 -7.28117e-09 
30.4514 -43.35 -3.79354 
29.5631 -42.35 -7.49366 
28.1069 -41.35 -11.0093 
26.1187 -40.35 -14.2538 
