0.0288654 -0.0121294 0.0128518 
0.0274751 -0.0125313 0.0122327 
0.0323982 -0.00727036 0.0235387 
0.0304142 -0.00935283 0.0220972 
0.0280744 -0.0110212 0.0203972 
0.0255627 -0.0121294 0.0185723 
0.0243313 -0.0125313 0.0176777 
0.0251553 -0.00935283 0.0279377 
0.0232201 -0.0110212 0.0257885 
0.0211426 -0.0121294 0.0234813 
0.0201242 -0.0125313 0.0223503 
0.0173509 -0.0110212 0.0300526 
0.0157986 -0.0121294 0.0273639 
0.0150376 -0.0125313 0.0260459 
0.00976406 -0.0121294 0.0300506 
0.00929375 -0.0125313 0.0286033 
0.00314372 -0.0125313 0.0299104 
0.0481137 0.0679875 0.00342184 
0.0481179 0.0680714 0.00326328 
0.0480523 0.0668157 0.00564566 
0.0480589 0.0660436 0.00666204 
0.0480624 0.065598 0.00725281 
0.0481138 0.0649188 0.00771449 
0.04812 0.0648346 0.00777247 
0.04816 0.0644514 0.00792777 
0.0482397 0.0638301 0.00803867 
0.0483316 0.0631949 0.00805421 
0.0484653 0.0622678 0.0080788 
0.0485891 0.0614801 0.0080037 
0.0486481 0.0611034 0.00796909 
0.0487271 0.0605926 0.00793278 
0.0488127 0.0600777 0.00783783 
0.0489323 0.0593511 0.0077165 
0.0489578 0.0592108 0.00767023 
0.0489668 0.0591604 0.0076548 
0.0489802 0.0590984 0.00761482 
0.0486927 0.0590984 0.01035 
0.0504848 0.0438596 0.0107309 
0.0471506 0.0438596 0.0209929 
0.0476743 0.037594 0.0212259 
0.0422194 0.037594 0.0306742 
0.0425456 0.0313283 0.0309112 
0.0351891 0.0313283 0.0390815 
0.0352174 0.0250627 0.0391129 
0.0263158 0.0250627 0.0455803 
0.0257035 0.0160896 0.0445199 
0.0158857 0.0160896 0.0488911 
0.0149749 0.00711655 0.0460882 
0.00506546 0.00711655 0.0481945 
0.00471558 0 0.0448657 
-0.00471555 0 0.0448657 
-0.00458353 -0.00244781 0.0436096 
-0.0135504 -0.00244781 0.0417038 
-0.0130398 -0.00491998 0.0401325 
-0.0139406 0 0.0429048 
-0.0149749 0.00711655 0.0460882 
-0.0158856 0.0160896 0.0488911 
-0.016264 0.0250627 0.0500556 
-0.0162509 0.0313283 0.0500154 
-0.0161263 0.037594 0.0496318 
-0.0159491 0.0438596 0.0490866 
-0.015383 0.0590984 0.0473441 
-0.0149752 0.0680714 0.0460891 
-0.0146033 0.075188 0.0449444 
-0.0143028 0.0801079 0.0440196 
-0.00506543 0.00711655 0.0481945 
-0.00537348 0.0160896 0.0511256 
-0.00550147 0.0250627 0.0523432 
-0.00549704 0.0313283 0.0523011 
-0.0054549 0.037594 0.0519001 
-0.00539498 0.0438596 0.0513299 
-0.00520346 0.0590984 0.0495078 
-0.00506553 0.0680714 0.0481955 
-0.00493971 0.075188 0.0469985 
-0.00483807 0.0801079 0.0460313 
-0.00478054 0.0824584 0.045484 
0.00537352 0.0160896 0.0511256 
0.00550152 0.0250627 0.0523432 
0.00549708 0.0313283 0.0523011 
0.00545494 0.037594 0.0519001 
0.00539501 0.0438596 0.0513299 
0.0052035 0.0590984 0.0495078 
0.00506556 0.0680714 0.0481955 
0.00493975 0.075188 0.0469985 
0.0048381 0.0801079 0.0460313 
0.00478056 0.0824584 0.045484 
0.00471558 0.0845409 0.0448657 
0.016264 0.0250627 0.0500556 
0.016251 0.0313283 0.0500153 
0.0161263 0.037594 0.0496318 
0.0159492 0.0438596 0.0490866 
0.0153831 0.0590984 0.0473441 
0.0149753 0.0680714 0.0460891 
0.0146033 0.075188 0.0449444 
0.0143028 0.0801079 0.0440196 
0.0141327 0.0824584 0.0434961 
0.0139406 0.0845409 0.0429048 
0.0136982 0.0862091 0.042159 
0.0262946 0.0313283 0.0455436 
0.026093 0.037594 0.0451944 
0.0258064 0.0438596 0.044698 
0.0248902 0.0590984 0.0431111 
0.0242305 0.0680714 0.0419684 
0.0236287 0.075188 0.0409261 
0.0231425 0.0801079 0.0400838 
0.0228673 0.0824584 0.0396073 
0.0225564 0.0845409 0.0390688 
0.0221643 0.0862091 0.0383897 
0.0217501 0.0873174 0.0376723 
0.0349193 0.037594 0.0387818 
0.0345357 0.0438596 0.0383558 
0.0333096 0.0590984 0.0369941 
0.0324267 0.0680714 0.0360135 
0.0316213 0.075188 0.035119 
0.0309707 0.0801079 0.0343964 
0.0306024 0.0824584 0.0339873 
0.0301863 0.0845409 0.0335253 
0.0296617 0.0862091 0.0329426 
0.0291074 0.0873174 0.0323269 
0.0417556 0.0438596 0.0303372 
0.0402733 0.0590984 0.0292603 
0.0392058 0.0680714 0.0284846 
0.038232 0.075188 0.0277772 
0.0374452 0.0801079 0.0272056 
0.037 0.0824584 0.0268821 
0.036497 0.0845409 0.0265167 
0.0358625 0.0862091 0.0260556 
0.0351925 0.0873174 0.0255688 
0.0454768 0.0590984 0.0202476 
0.0442713 0.0680714 0.0197109 
0.0431717 0.075188 0.0192213 
0.0422833 0.0801079 0.0188258 
0.0417806 0.0824584 0.0186019 
0.0412125 0.0845409 0.018349 
0.0404961 0.0862091 0.0180301 
0.0397395 0.0873174 0.0176931 
0.047402 0.0680714 0.0100756 
0.0462247 0.075188 0.00982535 
0.0452734 0.0801079 0.00962318 
0.0447351 0.0824584 0.00950875 
0.0441269 0.0845409 0.00937949 
0.0433599 0.0862091 0.00921644 
0.0425496 0.0873174 0.00904422 
0.0482856 0.0691083 7.5188e-09 
0.0472573 0.075188 6.26566e-09 
0.0462848 0.0801079 6.26566e-09 
0.0452734 0.0801079 -0.00962316 
0.0447351 0.0824584 -0.00950873 
0.0417806 0.0824584 -0.0186019 
0.0412125 0.0845409 -0.018349 
0.036497 0.0845409 -0.0265167 
0.0358625 0.0862091 -0.0260556 
0.0296617 0.0862091 -0.0329426 
0.0291074 0.0873174 -0.0323269 
0.0217501 0.0873174 -0.0376723 
0.0481261 0.0682821 -0.00284786 
0.0481177 0.0680714 -0.00326614 
0.0481414 0.068391 -0.00252675 
0.0482177 0.0689283 -0.000935865 
0.0482777 0.0690876 -0.00010861 
0.0462247 0.075188 -0.00982534 
0.0422833 0.0801079 -0.0188258 
0.037 0.0824584 -0.0268821 
0.0301863 0.0845409 -0.0335253 
0.0221643 0.0862091 -0.0383897 
0.0134424 0.0873174 -0.0413712 
0.0481261 0.0682821 0.00284786 
0.0482177 0.0689283 0.000935877 
-0.0402732 0.0590984 0.0292603 
-0.0417555 0.0438596 0.0303372 
-0.0422193 0.037594 0.0306742 
-0.0425455 0.0313283 0.0309113 
-0.0425798 0.0250627 0.0309361 
-0.0415892 0.0160896 0.0302164 
-0.0392049 0.00711655 0.0284841 
-0.036497 0 0.0265167 
-0.0354752 -0.00244781 0.0257743 
-0.0341387 -0.00491998 0.0248033 
-0.0323982 -0.00727036 0.0235387 
-0.0304142 -0.00935283 0.0220972 
-0.0280743 -0.0110212 0.0203972 
-0.0255627 -0.0121294 0.0185724 
-0.0243313 -0.0125313 0.0176778 
-0.0471505 0.0438596 0.0209929 
-0.0476743 0.037594 0.0212261 
-0.0480426 0.0313283 0.0213901 
-0.0480813 0.0250627 0.0214073 
-0.0469628 0.0160896 0.0209093 
-0.0442703 0.00711655 0.0197105 
-0.0412125 0 0.0183491 
-0.0400588 -0.00244781 0.0178355 
-0.0385496 -0.00491998 0.0171634 
-0.0365842 -0.00727036 0.0162883 
-0.0343437 -0.00935283 0.0152909 
-0.0317016 -0.0110212 0.0141145 
-0.0288654 -0.0121294 0.0128518 
-0.0274751 -0.0125313 0.0122327 
-0.0510456 0.037594 0.0108502 
-0.05144 0.0313283 0.010934 
-0.0514815 0.0250627 0.0109428 
-0.0502837 0.0160896 0.0106882 
-0.047401 0.00711655 0.0100755 
-0.0441269 0 0.00937956 
-0.0428916 -0.00244781 0.00911698 
-0.0412757 -0.00491998 0.00877348 
-0.0391713 -0.00727036 0.00832619 
-0.0367724 -0.00935283 0.00781629 
-0.0339435 -0.0110212 0.00721499 
-0.0309066 -0.0121294 0.00656947 
-0.0294179 -0.0125313 0.00625303 
-0.0315971 -0.0121294 -3.7594e-09 
-0.0294179 -0.0125313 -0.00625298 
-0.0309066 -0.0121294 -0.00656942 
-0.0274751 -0.0125313 -0.0122327 
-0.0288654 -0.0121294 -0.0128518 
-0.0243313 -0.0125313 -0.0176777 
-0.0255627 -0.0121294 -0.0185723 
-0.0201242 -0.0125313 -0.0223503 
-0.0211426 -0.0121294 -0.0234813 
-0.0150376 -0.0125313 -0.0260459 
-0.0157986 -0.0121294 -0.0273639 
-0.00929375 -0.0125313 -0.0286033 
-0.00976406 -0.0121294 -0.0300506 
-0.00314371 -0.0125313 -0.0299104 
-0.00330279 -0.0121294 -0.0314241 
0.00314372 -0.0125313 -0.0299104 
0.00330281 -0.0121294 -0.0314241 
0.00929375 -0.0125313 -0.0286033 
0.00976406 -0.0121294 -0.0300506 
0.0150376 -0.0125313 -0.0260459 
0.0157986 -0.0121294 -0.0273639 
0.0201242 -0.0125313 -0.0223503 
0.0107235 -0.0110212 -0.0330034 
0.00392965 -0.00935283 -0.0373881 
-0.00418599 -0.00727036 -0.0398271 
-0.0130398 -0.00491998 -0.0401325 
-0.0219249 -0.00244781 -0.0379751 
-0.0301863 0 -0.0335253 
-0.0392049 0.00711655 -0.0284841 
-0.0469628 0.0160896 -0.0209091 
-0.0514815 0.0250627 -0.0109427 
-0.0525892 0.0313283 -6.26566e-09 
0.00362733 -0.0110212 -0.0345118 
-0.00392964 -0.00935283 -0.0373881 
-0.012375 -0.00727036 -0.0380863 
-0.0210989 -0.00491998 -0.0365444 
-0.0293412 -0.00244781 -0.0325868 
-0.036497 0 -0.0265167 
-0.0442704 0.00711655 -0.0197104 
-0.0502838 0.0160896 -0.0106882 
-0.0526316 0.0250627 -6.26566e-09 
-0.00362733 -0.0110212 -0.0345118 
-0.0116172 -0.00935283 -0.035754 
-0.0200232 -0.00727036 -0.0346812 
-0.0282358 -0.00491998 -0.031359 
-0.0354753 -0.00244781 -0.0257743 
-0.0412125 0 -0.018349 
-0.047401 0.00711655 -0.0100754 
-0.0514071 0.0160896 -6.26566e-09 
-0.0107235 -0.0110212 -0.0330034 
-0.018797 -0.00935283 -0.0325574 
-0.0267962 -0.00727036 -0.0297603 
-0.0341387 -0.00491998 -0.0248033 
-0.0400589 -0.00244781 -0.0178353 
-0.0441269 0 -0.00937949 
-0.04846 0.00711655 -6.26566e-09 
-0.0173509 -0.0110212 -0.0300526 
-0.0251553 -0.00935283 -0.0279377 
-0.0323982 -0.00727036 -0.0235387 
-0.0385496 -0.00491998 -0.0171634 
-0.0428916 -0.00244781 -0.0091169 
-0.0451128 0 -5.01253e-09 
-0.0232201 -0.0110212 -0.0257885 
-0.0304142 -0.00935283 -0.0220972 
-0.0365842 -0.00727036 -0.0162883 
-0.0412757 -0.00491998 -0.00877342 
-0.0438499 -0.00244781 -5.01253e-09 
-0.0280744 -0.0110212 -0.0203972 
-0.0343439 -0.00935283 -0.0152909 
-0.0391713 -0.00727036 -0.00832612 
-0.0421977 -0.00491998 -5.01253e-09 
-0.0317018 -0.0110212 -0.0141145 
-0.0367724 -0.00935283 -0.00781623 
-0.0400464 -0.00727036 -5.01253e-09 
-0.0339435 -0.0110212 -0.00721492 
-0.037594 -0.00935283 -5.01253e-09 
-0.0347019 -0.0110212 -3.7594e-09 
0.0457345 0.0824584 6.26566e-09 
0.0451128 0.0845409 6.26566e-09 
0.0443286 0.0862091 6.26566e-09 
0.0435002 0.0873174 6.26566e-09 
0.0441269 0.0845409 -0.00937947 
0.0433599 0.0862091 -0.00921643 
0.0425496 0.0873174 -0.00904421 
0.0404962 0.0862091 -0.0180301 
0.0397395 0.0873174 -0.0176931 
0.0351925 0.0873174 -0.0255688 
-0.00454699 0.0873174 0.0432619 
-0.0136982 0.0862091 0.042159 
-0.0225564 0.0845409 0.0390688 
-0.0306023 0.0824584 0.0339873 
-0.0374452 0.0801079 0.0272056 
-0.0431717 0.075188 0.0192213 
-0.0474019 0.0680714 0.0100757 
-0.0497805 0.0590984 -6.26566e-09 
-0.0504848 0.0438596 -0.0107309 
-0.0476743 0.037594 -0.0212259 
-0.0425456 0.0313283 -0.0309112 
-0.0352174 0.0250627 -0.0391129 
-0.0257036 0.0160896 -0.0445199 
-0.0149749 0.00711655 -0.0460882 
-0.00471556 0 -0.0448657 
0.00458356 -0.00244781 -0.0436096 
0.0130398 -0.00491998 -0.0401325 
0.0200232 -0.00727036 -0.0346812 
0.0251553 -0.00935283 -0.0279377 
0.0280744 -0.0110212 -0.0203972 
0.0288654 -0.0121294 -0.0128518 
0.0317018 -0.0110212 -0.0141145 
0.0343439 -0.00935283 -0.0152909 
0.0365842 -0.00727036 -0.0162883 
0.0385496 -0.00491998 -0.0171634 
0.0400589 -0.00244781 -0.0178353 
0.0412125 0 -0.018349 
0.0442704 0.00711655 -0.0197104 
0.047401 0.00711655 -0.0100754 
0.0469628 0.0160896 -0.0209091 
0.0502838 0.0160896 -0.0106881 
0.0480813 0.0250627 -0.0214071 
0.0514815 0.0250627 -0.0109427 
0.0480427 0.0313283 -0.02139 
0.0514401 0.0313283 -0.0109339 
0.0476743 0.037594 -0.0212259 
0.0510456 0.037594 -0.0108501 
0.0471506 0.0438596 -0.0209927 
0.0504848 0.0438596 -0.0107309 
0.0454768 0.0590984 -0.0202475 
0.0486927 0.0590984 -0.0103499 
0.0442713 0.0680714 -0.0197108 
0.047402 0.0680714 -0.0100756 
0.0431717 0.075188 -0.0192213 
0.0304142 -0.00935283 -0.0220972 
0.0323982 -0.00727036 -0.0235387 
0.0341387 -0.00491998 -0.0248033 
0.0354753 -0.00244781 -0.0257743 
0.036497 0 -0.0265167 
0.0392049 0.00711655 -0.0284841 
0.0415892 0.0160896 -0.0302164 
0.0425798 0.0250627 -0.0309361 
0.0425456 0.0313283 -0.0309112 
0.0422194 0.037594 -0.0306742 
0.0417556 0.0438596 -0.0303372 
0.0402733 0.0590984 -0.0292603 
0.0392058 0.0680714 -0.0284846 
0.038232 0.075188 -0.0277772 
0.0374452 0.0801079 -0.0272055 
0.0267962 -0.00727036 -0.0297603 
0.0282358 -0.00491998 -0.031359 
0.0293412 -0.00244781 -0.0325868 
0.0301863 0 -0.0335253 
0.0324261 0.00711655 -0.0360128 
0.0343981 0.0160896 -0.038203 
0.0352174 0.0250627 -0.0391129 
0.0351891 0.0313283 -0.0390815 
0.0349193 0.037594 -0.0387817 
0.0345357 0.0438596 -0.0383558 
0.0333096 0.0590984 -0.0369941 
0.0324267 0.0680714 -0.0360135 
0.0316213 0.075188 -0.035119 
0.0309707 0.0801079 -0.0343964 
0.0306024 0.0824584 -0.0339873 
0.0210989 -0.00491998 -0.0365444 
0.0219249 -0.00244781 -0.0379751 
0.0225564 0 -0.0390688 
0.02423 0.00711655 -0.0419675 
0.0257036 0.0160896 -0.0445199 
0.0263158 0.0250627 -0.0455803 
0.0262946 0.0313283 -0.0455436 
0.026093 0.037594 -0.0451944 
0.0258064 0.0438596 -0.044698 
0.0248902 0.0590984 -0.0431111 
0.0242305 0.0680714 -0.0419684 
0.0236287 0.075188 -0.0409261 
0.0231425 0.0801079 -0.0400838 
0.0228673 0.0824584 -0.0396073 
0.0225564 0.0845409 -0.0390688 
0.0135504 -0.00244781 -0.0417036 
0.0139406 0 -0.0429048 
0.0149749 0.00711655 -0.0460882 
0.0158857 0.0160896 -0.0488911 
0.016264 0.0250627 -0.0500556 
0.016251 0.0313283 -0.0500153 
0.0161263 0.037594 -0.0496318 
0.0159492 0.0438596 -0.0490866 
0.0153831 0.0590984 -0.0473441 
0.0149753 0.0680714 -0.0460891 
0.0146034 0.075188 -0.0449444 
0.0143029 0.0801079 -0.0440196 
0.0141327 0.0824584 -0.0434961 
0.0139406 0.0845409 -0.0429048 
0.0136982 0.0862091 -0.042159 
0.00471558 0 -0.0448657 
0.00506545 0.00711655 -0.0481945 
0.00537352 0.0160896 -0.0511256 
0.0055015 0.0250627 -0.0523432 
0.00549708 0.0313283 -0.0523011 
0.00545492 0.037594 -0.0519001 
0.00539501 0.0438596 -0.0513299 
0.00520348 0.0590984 -0.0495078 
0.00506555 0.0680714 -0.0481955 
0.00493974 0.075188 -0.0469985 
0.0048381 0.0801079 -0.0460313 
0.00478056 0.0824584 -0.045484 
0.00471558 0.0845409 -0.0448657 
0.00463361 0.0862091 -0.0440857 
0.00454702 0.0873174 -0.0432619 
-0.00506544 0.00711655 -0.0481945 
-0.00537351 0.0160896 -0.0511256 
-0.00550149 0.0250627 -0.0523432 
-0.00549707 0.0313283 -0.0523011 
-0.00545491 0.037594 -0.0519001 
-0.00539499 0.0438596 -0.0513299 
-0.00520347 0.0590984 -0.0495078 
-0.00506554 0.0680714 -0.0481955 
-0.00493974 0.075188 -0.0469985 
-0.00483808 0.0801079 -0.0460313 
-0.00478055 0.0824584 -0.045484 
-0.00471556 0.0845409 -0.0448657 
-0.0046336 0.0862091 -0.0440857 
-0.00454701 0.0873174 -0.0432619 
-0.0158857 0.0160896 -0.0488911 
-0.016264 0.0250627 -0.0500556 
-0.016251 0.0313283 -0.0500153 
-0.0161263 0.037594 -0.0496318 
-0.0159492 0.0438596 -0.0490866 
-0.015383 0.0590984 -0.0473441 
-0.0149752 0.0680714 -0.0460891 
-0.0146033 0.075188 -0.0449444 
-0.0143028 0.0801079 -0.0440196 
-0.0141327 0.0824584 -0.0434961 
-0.0139406 0.0845409 -0.0429048 
-0.0136982 0.0862091 -0.042159 
-0.0134424 0.0873174 -0.0413712 
-0.0263158 0.0250627 -0.0455803 
-0.0262946 0.0313283 -0.0455436 
-0.026093 0.037594 -0.0451944 
-0.0258064 0.0438596 -0.044698 
-0.0248902 0.0590984 -0.0431111 
-0.0242305 0.0680714 -0.0419684 
-0.0236287 0.075188 -0.0409261 
-0.0231425 0.0801079 -0.0400838 
-0.0228673 0.0824584 -0.0396073 
-0.0225564 0.0845409 -0.0390688 
-0.0221643 0.0862091 -0.0383897 
-0.0217501 0.0873174 -0.0376723 
-0.0351891 0.0313283 -0.0390815 
-0.0349193 0.037594 -0.0387818 
-0.0345357 0.0438596 -0.0383558 
-0.0333096 0.0590984 -0.0369941 
-0.0324267 0.0680714 -0.0360135 
-0.0316213 0.075188 -0.035119 
-0.0309707 0.0801079 -0.0343964 
-0.0306024 0.0824584 -0.0339873 
-0.0301863 0.0845409 -0.0335253 
-0.0296617 0.0862091 -0.0329426 
-0.0291074 0.0873174 -0.0323269 
-0.0422194 0.037594 -0.0306742 
-0.0417556 0.0438596 -0.0303372 
-0.0402733 0.0590984 -0.0292603 
-0.0392058 0.0680714 -0.0284846 
-0.038232 0.075188 -0.0277772 
-0.0374452 0.0801079 -0.0272056 
-0.037 0.0824584 -0.0268821 
-0.036497 0.0845409 -0.0265167 
-0.0358625 0.0862091 -0.0260556 
-0.0351925 0.0873174 -0.0255688 
-0.0471506 0.0438596 -0.0209929 
-0.0454768 0.0590984 -0.0202476 
-0.0442713 0.0680714 -0.0197109 
-0.0431717 0.075188 -0.0192213 
-0.0422833 0.0801079 -0.0188258 
-0.0417806 0.0824584 -0.0186019 
-0.0412125 0.0845409 -0.018349 
-0.0404962 0.0862091 -0.0180301 
-0.0397395 0.0873174 -0.0176931 
-0.0486927 0.0590984 -0.0103499 
-0.047402 0.0680714 -0.0100756 
-0.0462247 0.075188 -0.00982535 
-0.0452734 0.0801079 -0.00962317 
-0.0447351 0.0824584 -0.00950875 
-0.0441269 0.0845409 -0.00937949 
-0.0433599 0.0862091 -0.00921644 
-0.0425496 0.0873174 -0.00904421 
-0.0484609 0.0680714 -6.26566e-09 
-0.0472573 0.075188 -5.01253e-09 
-0.0462848 0.0801079 -5.01253e-09 
-0.0457345 0.0824584 -5.01253e-09 
-0.0451128 0.0845409 -5.01253e-09 
-0.0443286 0.0862091 -5.01253e-09 
-0.0435002 0.0873174 -5.01253e-09 
-0.0462246 0.075188 0.00982544 
-0.0452734 0.0801079 0.00962326 
-0.0447351 0.0824584 0.00950882 
-0.0441269 0.0845409 0.00937956 
-0.0433599 0.0862091 0.00921652 
-0.0425496 0.0873174 0.00904429 
0.0489801 0.0590984 -0.007616 
0.0500301 0.0570227 7.5188e-09 
0.0516128 0.0438596 7.5188e-09 
0.052186 0.037594 7.5188e-09 
0.0510456 0.037594 0.0108501 
0.0514401 0.0313283 0.0109339 
0.0480426 0.0313283 0.02139 
0.0480813 0.0250627 0.0214071 
0.0425798 0.0250627 0.0309361 
0.0415892 0.0160896 0.0302164 
0.0343981 0.0160896 0.038203 
0.0324261 0.00711655 0.0360128 
0.02423 0.00711655 0.0419675 
0.0225564 0 0.0390688 
0.0139406 0 0.0429048 
0.0135504 -0.00244781 0.0417036 
0.00458357 -0.00244781 0.0436096 
0.00441088 -0.00491998 0.0419667 
-0.00441085 -0.00491998 0.0419667 
-0.00418596 -0.00727036 0.0398271 
-0.012375 -0.00727036 0.0380865 
-0.0116172 -0.00935283 0.035754 
0.0525892 0.0313283 7.5188e-09 
0.0526316 0.0250627 7.5188e-09 
0.0514071 0.0160896 7.5188e-09 
0.0502838 0.0160896 0.0106882 
0.0442704 0.00711655 0.0197104 
0.036497 0 0.0265167 
0.0293412 -0.00244781 0.0325868 
0.0210989 -0.00491998 0.0365444 
0.012375 -0.00727036 0.0380863 
0.00392965 -0.00935283 0.0373881 
-0.00362732 -0.0110212 0.0345118 
-0.00976404 -0.0121294 0.0300508 
-0.0107234 -0.0110212 0.0330034 
-0.00392962 -0.00935283 0.0373881 
0.004186 -0.00727036 0.0398271 
0.0130398 -0.00491998 0.0401325 
0.0219249 -0.00244781 0.0379751 
0.0301863 0 0.0335253 
0.0392049 0.00711655 0.0284841 
0.0469628 0.0160896 0.0209091 
0.0514815 0.0250627 0.0109427 
-0.0422833 0.0801079 0.0188258 
-0.0417806 0.0824584 0.018602 
-0.0412125 0.0845409 0.0183491 
-0.0404961 0.0862091 0.0180301 
-0.0397395 0.0873174 0.0176932 
-0.037 0.0824584 0.0268821 
-0.036497 0.0845409 0.0265167 
-0.0358625 0.0862091 0.0260558 
-0.0351924 0.0873174 0.0255688 
-0.0301863 0.0845409 0.0335253 
-0.0296615 0.0862091 0.0329426 
-0.0291073 0.0873174 0.0323271 
-0.0221643 0.0862091 0.0383897 
-0.0217501 0.0873174 0.0376723 
-0.0134422 0.0873174 0.0413712 
0.0468128 0.00536738 -0.00784432 
0.0466932 0.00511251 -0.00784099 
0.0465471 0.00474429 -0.00758437 
0.0465273 0.00468787 -0.00752024 
0.0463905 0.00429643 -0.00706995 
0.0463407 0.00409227 -0.00662999 
0.0462155 0.00357221 -0.00549328 
0.0461472 0.00311338 -0.00409004 
0.0460851 0.00268506 -0.00276459 
0.0460876 0.00224742 -0.00078238 
0.0489818 0.0590886 -0.0076097 
0.0490784 0.0585786 -0.00727451 
0.049142 0.0582917 -0.00699781 
0.0492125 0.0579761 -0.00668835 
0.0494727 0.0571222 -0.00518965 
0.0494931 0.0571129 -0.00500579 
0.0494965 0.0571119 -0.00497509 
0.049834 0.0570229 -0.00186529 
0.0498668 0.0570221 -0.00155432 
0.0499951 0.0570238 0.000332011 
0.049834 0.0570229 0.00186529 
0.049803 0.057033 0.00214842 
0.0494931 0.0571129 0.00500578 
0.0494912 0.0571139 0.00502239 
0.0494727 0.0571222 0.00518967 
0.0492867 0.0577346 0.00625841 
0.0492125 0.0579761 0.00668835 
0.0491465 0.0582743 0.00697452 
0.0490784 0.0585784 0.00727451 
0.0490476 0.0587434 0.00737966 
0.0480776 0.0673128 -0.00470908 
0.0480523 0.0668157 -0.00564566 
0.0480561 0.0662838 -0.00635248 
0.0480624 0.065598 -0.00725281 
0.0480757 0.0654187 -0.00737662 
0.04812 0.0648346 -0.00777247 
0.0481259 0.0647771 -0.00779634 
0.04816 0.0644514 -0.00792777 
0.0482174 0.0640039 -0.00800779 
0.0482397 0.0638301 -0.00803867 
0.0483644 0.062965 -0.00806343 
0.0484653 0.0622678 -0.0080788 
0.0485236 0.0618954 -0.00804614 
0.0485891 0.0614801 -0.0080037 
0.0487269 0.0605926 -0.00793278 
0.0489323 0.0593511 -0.0077165 
0.0489668 0.0591604 -0.0076548 
0.0510239 0.0117137 0.00135524 
0.0510996 0.0116453 0.00175439 
0.0509482 0.0117822 0.00067762 
0.0509138 0.0118134 0 
0.0509482 0.0117822 -0.00067762 
0.0510239 0.0117137 -0.00135524 
0.0510996 0.0116453 -0.00175439 
0.0511563 0.011594 -0.00188945 
0.0493823 0.0110748 -0.00591976 
0.0495818 0.0109119 0.00637549 
0.0493823 0.0110748 0.00591976 
0.0513474 0.00947005 0.00591976 
0.051688 0.00919191 0.00451762 
0.0516573 0.0111409 0.00175439 
0.0517539 0.0110535 0.00133885 
0.0519179 0.00900409 0.00225881 
0.0518192 0.0109944 0.000669424 
0.0520024 0.00893513 0 
0.0518431 0.0109728 0 
0.0519179 0.00900409 -0.00225881 
0.0518192 0.0109944 -0.000669424 
0.051688 0.00919191 -0.00451762 
0.0517539 0.0110535 -0.00133885 
0.0513474 0.00947005 -0.00591976 
0.0516573 0.0111409 -0.00175439 
0.0509043 0.0098319 -0.00645901 
0.0515316 0.0112546 -0.0019142 
0.0504262 0.0102223 -0.00672734 
0.0513959 0.0113773 -0.00199372 
0.0512855 0.0114771 -0.00200501 
0.0512129 0.0115428 -0.00196881 
0.0497815 0.0107489 -0.00664327 
0.0495818 0.0109119 -0.00637549 
0.0515316 0.0112546 0.0019142 
0.0509043 0.0098319 0.00645901 
0.0500373 0.0105399 -0.00676545 
0.0497862 0.00709588 -0.00668835 
0.0502266 0.00686586 -0.00510416 
0.0505239 0.00671053 -0.00255208 
0.0496439 0.00515995 -0.00535539 
0.0499957 0.0051656 -0.00267769 
0.0506331 0.00665351 0 
0.0501249 0.00516768 0 
0.0505239 0.00671053 0.00255208 
0.0499957 0.0051656 0.00267769 
0.0502266 0.00686586 0.00510416 
0.0496439 0.00515995 0.00535539 
0.0497862 0.00709588 0.00668835 
0.0491226 0.00515157 0.00701754 
0.0492133 0.00739513 0.00729759 
0.0484446 0.00514066 0.00765679 
0.0500091 0.0031355 0.0072448 
0.0494001 0.00279024 0.00790475 
0.0520471 0.000646702 0.00749142 
0.051563 0.000108375 0.00817382 
0.0543328 -0.000806091 0.00768802 
0.0541308 -0.00152102 0.00838833 
0.0575046 -0.000670665 0.00788172 
0.0576264 -0.00142253 0.00859967 
0.0617711 0.000739985 0.00809125 
0.0620822 2.26591e-05 0.0088283 
0.0653515 0.00278069 0.00825471 
0.0658316 0.00214362 0.00900664 
0.0675609 0.00500347 0.00836664 
0.068198 0.00450565 0.00912877 
0.0692506 0.00790946 0.0084666 
0.0699811 0.00754085 0.00923784 
0.0709509 0.012008 0.00857189 
0.0717315 0.0117307 0.00935272 
0.0729583 0.0189792 0.00869406 
0.0737746 0.0187803 0.00948601 
0.0748035 0.0284778 0.00877193 
0.0756416 0.0283505 0.00957098 
0.0758222 0.0378124 0.00874951 
0.0766664 0.0377657 0.00954653 
0.0758635 0.046967 0.00865601 
0.0766992 0.0470018 0.00944451 
0.0751331 0.0559301 0.00851124 
0.0759432 0.0560717 0.00928654 
0.073558 0.0620204 0.00837526 
0.0742931 0.0623591 0.00913818 
0.0714233 0.0651454 0.00827393 
0.0720104 0.0656882 0.00902762 
0.0688955 0.0672148 0.00817762 
0.0693145 0.0678848 0.00892253 
0.0658662 0.0686505 0.00807137 
0.0661142 0.06939 0.0088066 
0.0615949 0.0695935 0.00792214 
0.0616812 0.0703541 0.00864378 
0.0567584 0.0697172 0.00773323 
0.0566648 0.0704585 0.00843767 
0.0535124 0.0689296 0.00756454 
0.0531152 0.0695432 0.0082536 
0.0518321 0.0668575 0.00740204 
0.0512115 0.067213 0.00807632 
0.0506916 0.0638447 0.00719838 
0.050015 0.0640069 0.0078541 
0.0503623 0.0617203 0.00701754 
0.0496904 0.0616292 0.00765679 
0.050853 0.0605019 0.00684372 
0.0502857 0.060162 0.00746713 
0.0517955 0.0593033 0.00659564 
0.0513308 0.058867 0.00719644 
0.0504262 0.0102223 0.00672734 
0.0485951 0.00771798 0.00760078 
0.047713 0.00512891 0.00797489 
0.048743 0.00241774 0.00823314 
0.0510409 -0.000472444 0.0085134 
0.0539127 -0.00229236 0.00873683 
0.0577578 -0.00223373 0.00895695 
0.0624179 -0.000751284 0.00919508 
0.0663495 0.00145625 0.00938083 
0.0688853 0.00396855 0.00950803 
0.0707692 0.00714317 0.00962164 
0.0725736 0.0114315 0.00974128 
0.0746553 0.0185659 0.00988011 
0.0765457 0.028213 0.00996861 
0.0775773 0.0377153 0.00994313 
0.077601 0.0470391 0.00983688 
0.0768174 0.0562244 0.00967236 
0.0750861 0.0627246 0.00951782 
0.0726439 0.0662738 0.00940268 
0.0697665 0.0686078 0.00929322 
0.0663817 0.0701878 0.00917247 
0.0617744 0.0711748 0.00900288 
0.0565638 0.0712585 0.00878821 
0.0526866 0.0702053 0.00859649 
0.0505419 0.0675967 0.00841184 
0.0492852 0.0641817 0.00818039 
0.0489653 0.061531 0.00797489 
0.0496736 0.0597952 0.00777736 
0.0508296 0.0583962 0.00749543 
0.0500373 0.0105399 0.00676545 
0.0480924 0.00798061 0.00764382 
0.0471179 0.00511934 0.00802005 
0.0482084 0.00211471 0.00827977 
0.0506159 -0.000944926 0.00856162 
0.0537353 -0.00291984 0.00878632 
0.0578647 -0.00289363 0.00900768 
0.062691 -0.00138088 0.00924714 
0.0667709 0.000897104 0.00943396 
0.0694445 0.00353163 0.00956188 
0.0714101 0.00681965 0.00967613 
0.0732586 0.0111881 0.00979645 
0.0753718 0.0183914 0.00993606 
0.0772813 0.0281013 0.0100251 
0.0783183 0.0376743 0.00999945 
0.0783346 0.0470695 0.00989258 
0.0775284 0.0563487 0.00972713 
0.0757313 0.0630219 0.00957173 
0.0731592 0.0667503 0.00945593 
0.0701342 0.0691959 0.00934585 
0.0665994 0.070837 0.00922441 
0.0618502 0.0718425 0.00905387 
0.0564816 0.0719093 0.00883798 
0.052338 0.0707439 0.00864518 
0.0499971 0.0679088 0.00845949 
0.0486915 0.0643241 0.00822672 
0.0497815 0.0107489 0.00664327 
0.0492133 0.00739513 -0.00729759 
0.0485951 0.00771798 -0.00760078 
0.0480924 0.00798061 -0.00764382 
0.0484446 0.00514066 -0.00765679 
0.047713 0.00512891 -0.00797489 
0.048743 0.00241774 -0.00823314 
0.0482084 0.00211471 -0.00827977 
0.0506159 -0.000944926 -0.00856162 
0.0503363 -0.00125588 -0.00840701 
0.0536185 -0.00333278 -0.00862764 
0.0467262 0.00511305 0.00787523 
0.0491226 0.00515157 -0.00701754 
0.0471179 0.00511934 -0.00802005 
0.0467262 0.00511305 -0.00787523 
0.0478566 0.00191529 -0.00813026 
0.0478566 0.00191529 0.00813026 
0.0475823 0.00175981 0.00780253 
0.0503363 -0.00125588 0.00840701 
0.0501184 -0.00149831 0.00806812 
0.0536185 -0.00333278 0.00862764 
0.0535276 -0.00365475 0.00827986 
0.057935 -0.00332792 0.00884501 
0.0579897 -0.00366652 0.00848847 
0.0628708 -0.00179523 0.00908015 
0.0630109 -0.00211827 0.00871413 
0.0670481 0.000529115 0.0092636 
0.0672644 0.000242214 0.00889018 
0.0698125 0.00324409 0.00938921 
0.0700995 0.00301989 0.00901073 
0.0718321 0.00660674 0.00950139 
0.072161 0.00644074 0.0091184 
0.0737095 0.0110279 0.00961954 
0.074061 0.010903 0.00923178 
0.0758432 0.0182766 0.00975664 
0.0762109 0.0181871 0.00936335 
0.0777654 0.0280276 0.00984402 
0.0781429 0.0279703 0.00944722 
0.0788059 0.0376474 0.00981887 
0.0791861 0.0376263 0.00942307 
0.0788173 0.0470896 0.00971395 
0.0791936 0.0471053 0.00932238 
0.0779965 0.0564306 0.00955148 
0.0783614 0.0564944 0.00916645 
0.0761559 0.0632175 0.00939888 
0.0764868 0.06337 0.00902001 
0.0734982 0.0670638 0.00928518 
0.0737627 0.0673083 0.00891089 
0.0703763 0.0695828 0.00917708 
0.0705649 0.0698846 0.00880716 
0.0667426 0.071264 0.00905784 
0.0668543 0.0715971 0.00869272 
0.0619001 0.0722818 0.00889038 
0.0619391 0.0726244 0.008532 
0.0564274 0.0723375 0.00867838 
0.0563853 0.0726714 0.00832856 
0.0521085 0.0710984 0.00848906 
0.0519296 0.0713747 0.00814687 
0.047308 0.00160432 0.0072448 
0.0500091 0.0031355 -0.0072448 
0.0504773 0.00340088 -0.00552882 
0.0520471 0.000646702 -0.00749142 
0.0524192 0.00106049 -0.00571702 
0.0543328 -0.000806091 -0.00768802 
0.0544882 -0.00025656 -0.00586706 
0.0507935 0.00358009 -0.00276441 
0.0526704 0.00133992 -0.00285851 
0.0545931 0.000114536 -0.00293353 
0.0509095 0.00364589 0 
0.0527627 0.00144252 0 
0.0546316 0.000250776 0 
0.0507935 0.00358009 0.00276441 
0.0526704 0.00133992 0.00285851 
0.0545931 0.000114536 0.00293353 
0.0504773 0.00340088 0.00552882 
0.0524192 0.00106049 0.00571702 
0.0544882 -0.00025656 0.00586706 
0.0494001 0.00279024 -0.00790475 
0.051563 0.000108375 -0.00817382 
0.0510409 -0.000472444 -0.0085134 
0.0539127 -0.00229236 -0.00873683 
0.0537353 -0.00291984 -0.00878632 
0.0578647 -0.00289363 -0.00900768 
0.057935 -0.00332792 -0.00884501 
0.0628708 -0.00179523 -0.00908015 
0.0630109 -0.00211827 -0.00871413 
0.0672644 0.000242214 -0.00889018 
0.0674806 -4.46917e-05 -0.00825471 
0.0703863 0.0027957 -0.00836664 
0.07077 0.00249589 -0.00646312 
0.0729299 0.00605274 -0.00654034 
0.0733699 0.00583075 -0.00327018 
0.0753528 0.0104441 -0.00331084 
0.0735698 0.00572984 0 
0.0755664 0.0103682 0 
0.0733699 0.00583075 0.00327018 
0.0753528 0.0104441 0.00331084 
0.0748827 0.0106111 0.00662167 
0.0775618 0.017858 0.00335802 
0.0770702 0.0179778 0.00671605 
0.0795297 0.0277594 0.0033881 
0.0790249 0.0278361 0.0067762 
0.0800747 0.0375772 0.00675888 
0.0795663 0.0376053 0.00874951 
0.07957 0.0471208 0.00865601 
0.0499004 -0.00174074 0.00749142 
0.0534366 -0.0039767 0.00768802 
0.0580446 -0.00400511 0.00788172 
0.063151 -0.00244132 0.00809125 
0.0674806 -4.46917e-05 0.00825471 
0.0703863 0.0027957 0.00836664 
0.07249 0.00627475 0.0084666 
0.0744125 0.0107781 0.00857189 
0.0765786 0.0180975 0.00869406 
0.0785203 0.0279129 0.00877193 
0.0501184 -0.00149831 -0.00806812 
0.0475823 0.00175981 -0.00780253 
0.0499004 -0.00174074 -0.00749142 
0.047308 0.00160432 -0.0072448 
0.0496089 -0.00206496 -0.00578702 
0.0469412 0.00139639 -0.00559652 
0.0493174 -0.00238919 -0.00289351 
0.0465744 0.00118845 -0.00279826 
0.0491848 -0.00253655 0 
0.0464076 0.00109393 0 
0.0493174 -0.00238919 0.00289351 
0.0465744 0.00118845 0.00279826 
0.0496089 -0.00206496 0.00578702 
0.0469412 0.00139639 0.00559652 
0.0541308 -0.00152102 -0.00838833 
0.0577578 -0.00223373 -0.00895695 
0.062691 -0.00138088 -0.00924714 
0.0670481 0.000529115 -0.0092636 
0.0700995 0.00301989 -0.00901073 
0.07249 0.00627475 -0.0084666 
0.0748827 0.0106111 -0.00662167 
0.0770702 0.0179778 -0.00671605 
0.0775618 0.017858 -0.00335802 
0.0790249 0.0278361 -0.0067762 
0.0795297 0.0277594 -0.0033881 
0.0805832 0.0375491 -0.00337944 
0.0797592 0.0277246 0 
0.0808143 0.0375363 0 
0.0805832 0.0375491 0.00337944 
0.0800734 0.0471417 0.00668665 
0.0787262 0.0565581 0.00851124 
0.0535276 -0.00365475 -0.00827986 
0.0534366 -0.0039767 -0.00768802 
0.0533148 -0.00440728 -0.0059389 
0.0531931 -0.00483786 -0.00296945 
0.0531378 -0.00503358 0 
0.0531931 -0.00483786 0.00296945 
0.0533148 -0.00440728 0.0059389 
0.0575046 -0.000670665 -0.00788172 
0.0574111 -9.27381e-05 -0.00601487 
0.0617711 0.000739985 -0.00809125 
0.061532 0.00129137 -0.00617477 
0.0653515 0.00278069 -0.00825471 
0.0649826 0.00327039 -0.00629952 
0.0675609 0.00500347 -0.00836664 
0.0670712 0.00538612 -0.00638494 
0.0692506 0.00790946 -0.0084666 
0.0686891 0.00819279 -0.00646123 
0.0709509 0.012008 -0.00857189 
0.0703509 0.0122212 -0.00654158 
0.0729583 0.0189792 -0.00869406 
0.0723308 0.019132 -0.00663481 
0.0748035 0.0284778 -0.00877193 
0.0741594 0.0285758 -0.00669424 
0.0758222 0.0378124 -0.00874951 
0.0751733 0.0378482 -0.00667713 
0.0752211 0.0469404 -0.00660578 
0.0747872 0.0469224 -0.00330288 
0.0745103 0.0558212 -0.00649529 
0.0740897 0.0557476 -0.00324764 
0.072993 0.06176 -0.00639152 
0.0726114 0.0615842 -0.00319576 
0.0709721 0.0647282 -0.0063142 
0.0706674 0.0644464 -0.00315709 
0.068356 0.066352 -0.00312035 
0.0682761 0.0662243 0 
0.0655469 0.0676981 -0.0030798 
0.0654996 0.0675573 0 
0.0614672 0.0684689 0 
0.0614837 0.0686139 0.00302286 
0.0568969 0.0686211 0 
0.0568791 0.0687624 0.00295078 
0.0540997 0.0680224 0 
0.0540241 0.0681393 0.0028864 
0.0573479 0.000297541 -0.00300744 
0.0613704 0.00166372 -0.00308739 
0.0647333 0.00360109 -0.00314976 
0.0667405 0.00564452 -0.00319247 
0.0683099 0.00838412 -0.00323061 
0.0699457 0.0123651 -0.00327079 
0.0719071 0.0192352 -0.00331741 
0.0737243 0.0286419 -0.00334712 
0.0747351 0.0378726 -0.00333856 
0.0746281 0.0469158 0 
0.0739353 0.0557207 0 
0.0724714 0.0615197 0 
0.0705555 0.064343 0 
0.068356 0.066352 0.00312035 
0.0655469 0.0676981 0.0030798 
0.0656756 0.0680821 0.0061596 
0.0615286 0.0690088 0.00604571 
0.0573247 0.000440817 0 
0.0613112 0.00180041 0 
0.0646419 0.00372249 0 
0.0647333 0.00360109 0.00314976 
0.066619 0.00573939 0 
0.0667405 0.00564452 0.00319247 
0.0681708 0.00845436 0 
0.0683099 0.00838412 0.00323061 
0.069797 0.012418 0 
0.0699457 0.0123651 0.00327079 
0.0717515 0.0192731 0 
0.0719071 0.0192352 0.00331741 
0.0737243 0.0286419 0.00334712 
0.0723308 0.019132 0.00663481 
0.0741594 0.0285758 0.00669424 
0.0573479 0.000297541 0.00300744 
0.0613704 0.00166372 0.00308739 
0.061532 0.00129137 0.00617477 
0.0649826 0.00327039 0.00629952 
0.0574111 -9.27331e-05 0.00601487 
0.0576264 -0.00142253 -0.00859967 
0.0620822 2.26591e-05 -0.0088283 
0.0624179 -0.000751284 -0.00919508 
0.0663495 0.00145625 -0.00938083 
0.0667709 0.000897104 -0.00943396 
0.0694445 0.00353163 -0.00956188 
0.0698125 0.00324409 -0.00938921 
0.0718321 0.00660674 -0.00950139 
0.072161 0.00644074 -0.0091184 
0.074061 0.010903 -0.00923178 
0.0744125 0.0107781 -0.00857189 
0.0765786 0.0180975 -0.00869406 
0.0579897 -0.00366652 -0.00848847 
0.0580446 -0.00400511 -0.00788172 
0.063151 -0.00244132 -0.00809125 
0.0581179 -0.00445795 0.00608852 
0.0633383 -0.00287333 0.00625039 
0.0677697 -0.000428383 0.00637665 
0.07077 0.00249589 0.00646312 
0.0729299 0.00605274 0.00654034 
0.0581912 -0.00491078 0.00304426 
0.0635258 -0.00330536 0.00312519 
0.0680588 -0.000812081 0.00318833 
0.0711538 0.00219607 0.00323157 
0.0582246 -0.0051166 0 
0.063611 -0.00350174 0 
0.0681902 -0.000986486 0 
0.0713282 0.00205979 0 
0.0581912 -0.00491078 -0.00304426 
0.0635258 -0.00330536 -0.00312519 
0.0680588 -0.000812081 -0.00318833 
0.0711538 0.00219607 -0.00323157 
0.0581179 -0.00445795 -0.00608852 
0.0633383 -0.00287333 -0.00625039 
0.0677697 -0.000428383 -0.00637665 
0.0658316 0.00214362 -0.00900664 
0.0688853 0.00396855 -0.00950803 
0.0714101 0.00681965 -0.00967613 
0.0737095 0.0110279 -0.00961954 
0.0762109 0.0181871 -0.00936335 
0.0785203 0.0279129 -0.00877193 
0.0670712 0.00538612 0.00638494 
0.0686891 0.00819279 0.00646123 
0.0703509 0.0122212 0.00654158 
0.068198 0.00450565 -0.00912878 
0.0707692 0.00714317 -0.00962164 
0.0732586 0.0111881 -0.00979644 
0.0758432 0.0182766 -0.00975664 
0.0781429 0.0279703 -0.00944722 
0.0795663 0.0376053 -0.00874951 
0.0800747 0.0375772 -0.00675888 
0.0800734 0.0471417 -0.00668665 
0.0805768 0.0471627 -0.00334332 
0.0797021 0.0567287 -0.00328741 
0.0799239 0.0567674 0 
0.0779045 0.0640234 0 
0.0777034 0.0639307 0.00323489 
0.0747342 0.0682065 0.00319575 
0.0743806 0.0678796 0.0063915 
0.071006 0.07059 0.00631711 
0.0707536 0.0701863 0.00817762 
0.0669659 0.0719302 0.00807137 
0.0699811 0.00754085 -0.00923784 
0.0725736 0.0114315 -0.00974128 
0.0753718 0.0183914 -0.00993606 
0.0777654 0.0280276 -0.00984402 
0.0791861 0.0376263 -0.00942307 
0.07957 0.0471208 -0.00865601 
0.0792142 0.0566434 -0.00657482 
0.0777034 0.0639307 -0.00323489 
0.0748949 0.0683551 0 
0.0712583 0.0709935 0.00315855 
0.0671153 0.0723756 0.00623503 
0.0619779 0.072967 0.00792214 
0.0735647 0.0286662 0 
0.0745742 0.0378815 0 
0.0777852 0.0178036 0 
0.0747351 0.0378726 0.00333856 
0.0747872 0.0469224 0.00330288 
0.0751733 0.0378482 0.00667713 
0.0752211 0.0469404 0.00660578 
0.0745103 0.0558212 0.00649529 
0.0740897 0.0557476 0.00324764 
0.0808055 0.0471721 0 
0.0805768 0.0471627 0.00334332 
0.0726114 0.0615842 0.00319576 
0.0797021 0.0567287 0.00328741 
0.0792142 0.0566434 0.00657482 
0.072993 0.06176 0.00639152 
0.0706674 0.0644464 0.00315709 
0.073558 0.0620204 -0.00837526 
0.0742931 0.0623591 -0.00913818 
0.0751331 0.0559301 -0.00851124 
0.0759432 0.0560717 -0.00928654 
0.0772607 0.0637267 0.00646977 
0.0768179 0.0635227 0.00837526 
0.0740271 0.0675526 0.00827393 
0.0709721 0.0647282 0.0063142 
0.0685734 0.0666998 0.00624069 
0.0714233 0.0651454 -0.00827393 
0.0720104 0.0656882 -0.00902762 
0.0688955 0.0672148 -0.00817762 
0.0693145 0.0678848 -0.00892253 
0.0658662 0.0686505 -0.00807137 
0.0661142 0.06939 -0.0088066 
0.0615949 0.0695935 -0.00792214 
0.0616812 0.0703541 -0.00864378 
0.0568305 0.0691472 0.00590155 
0.0538178 0.0684579 0.00577282 
0.0567584 0.0697172 -0.00773323 
0.0566648 0.0704585 -0.00843767 
0.0540241 0.0681393 -0.0028864 
0.0568791 0.0687624 -0.00295078 
0.0614837 0.0686139 -0.00302286 
0.0615286 0.0690088 -0.00604571 
0.0656756 0.0680821 -0.0061596 
0.0685734 0.0666998 -0.00624069 
0.0758635 0.046967 -0.00865601 
0.0766992 0.0470018 -0.00944451 
0.0766664 0.0377657 -0.00954653 
0.077601 0.0470391 -0.00983688 
0.0775773 0.0377153 -0.00994313 
0.0783346 0.0470695 -0.00989258 
0.0783183 0.0376743 -0.00999945 
0.0788173 0.0470896 -0.00971395 
0.0788059 0.0376474 -0.00981887 
0.0791936 0.0471053 -0.00932238 
0.0756416 0.0283505 -0.00957098 
0.0737746 0.0187803 -0.00948601 
0.0717315 0.0117307 -0.00935272 
0.0746553 0.0185659 -0.00988011 
0.0772813 0.0281013 -0.0100251 
0.0765457 0.028213 -0.00996861 
0.0568305 0.0691472 -0.00590155 
0.0535124 0.0689296 -0.00756454 
0.0538178 0.0684579 -0.00577282 
0.0531152 0.0695432 -0.0082536 
0.0496386 0.0681142 0.00830672 
0.049359 0.0682743 0.00797188 
0.0483008 0.0644177 0.00807816 
0.0523093 0.0665842 0.00564882 
0.0519296 0.0713747 -0.00814687 
0.0521085 0.0710984 -0.00848906 
0.049359 0.0682743 -0.00797188 
0.0496386 0.0681142 -0.00830672 
0.0517508 0.071651 -0.00756454 
0.0490796 0.0684345 -0.00740204 
0.0517508 0.071651 0.00756454 
0.0515114 0.0720207 0.0058435 
0.0490796 0.0684345 0.00740204 
0.0487058 0.0686486 0.00571798 
0.0512722 0.0723902 0.00292175 
0.048332 0.0688628 0.002859 
0.0511634 0.0725581 0 
0.0512722 0.0723902 -0.00292175 
0.048332 0.0688628 -0.002859 
0.0515114 0.0720207 -0.0058435 
0.0487058 0.0686486 -0.00571798 
0.0563431 0.0730053 0.00773323 
0.0512115 0.0637202 0.0054934 
0.0506916 0.0638447 -0.00719838 
0.050015 0.0640069 -0.0078541 
0.0518321 0.0668575 -0.00740204 
0.0512115 0.067213 -0.00807632 
0.0503623 0.0617203 -0.00701754 
0.0496904 0.0616292 -0.00765679 
0.0491757 0.0594969 0.00782139 
0.0512891 0.0607632 0.00522273 
0.0508788 0.0617902 0.00535539 
0.0512277 0.0618375 0.00267769 
0.0515627 0.063636 0.00274669 
0.0526313 0.0663996 0.00282441 
0.0513558 0.0618549 0 
0.0516916 0.0636051 0 
0.0527496 0.0663318 0 
0.0512277 0.0618375 -0.00267769 
0.0515627 0.063636 -0.00274669 
0.0526313 0.0663996 -0.00282441 
0.0508788 0.0617902 -0.00535539 
0.0512115 0.0637202 -0.0054934 
0.0523093 0.0665842 -0.00564882 
0.050853 0.0605019 -0.00684372 
0.0512891 0.0607632 -0.00522273 
0.0517955 0.0593033 -0.00659564 
0.0521526 0.0596387 -0.00503341 
0.0515836 0.0609396 -0.00261137 
0.0523939 0.0598652 -0.0025167 
0.0516916 0.0610044 0 
0.0524825 0.0599482 0 
0.0515836 0.0609396 0.00261137 
0.0523939 0.0598652 0.0025167 
0.0521526 0.0596387 0.00503341 
0.0502857 0.060162 -0.00746713 
0.0501534 0.0577614 0.00740174 
0.0504218 0.0580134 0.00753787 
0.0499441 0.0575649 0.00710338 
0.0497348 0.0573684 0.00659564 
0.0513308 0.058867 -0.00719644 
0.0508296 0.0583962 -0.00749543 
0.0496736 0.0597952 -0.00777736 
0.0489653 0.061531 -0.00797489 
0.0492852 0.0641817 -0.00818039 
0.0505419 0.0675967 -0.00841184 
0.0526866 0.0702053 -0.00859649 
0.0565638 0.0712585 -0.00878821 
0.0617744 0.0711748 -0.00900288 
0.0663817 0.0701878 -0.00917247 
0.0697665 0.0686078 -0.00929322 
0.0726439 0.0662738 -0.00940268 
0.0750861 0.0627246 -0.00951782 
0.0768174 0.0562244 -0.00967236 
0.0504218 0.0580134 -0.00753787 
0.0491757 0.0594969 -0.0078214 
0.0486915 0.0643241 -0.00822672 
0.0499971 0.0679088 -0.00845949 
0.052338 0.0707439 -0.00864518 
0.0564816 0.0719093 -0.00883798 
0.0618502 0.0718425 -0.00905387 
0.0665994 0.070837 -0.00922441 
0.0701342 0.0691959 -0.00934585 
0.0731592 0.0667503 -0.00945593 
0.0757313 0.0630219 -0.00957173 
0.0775284 0.0563487 -0.00972713 
0.0501534 0.0577614 -0.00740174 
0.0499441 0.0575649 -0.00710338 
0.0497348 0.0573684 -0.00659564 
0.0511208 0.0574851 0.00175439 
0.0511732 0.0575407 0.00188945 
0.0510509 0.0574108 0.00135524 
0.0512254 0.0575964 0.00196881 
0.0512926 0.0576677 0.00200501 
0.050981 0.0573365 0.00067762 
0.0402377 0.0874782 -0.00855279 
0.0375802 0.0874782 -0.0167318 
0.0411367 0.0874782 6.26566e-09 
0.0332803 0.0874782 -0.0241796 
0.0402377 0.0874782 0.00855281 
0.0375802 0.0874782 0.0167318 
0.0332802 0.0874782 0.0241796 
0.0275258 0.0874782 0.0305706 
0.0205683 0.0874782 0.0356254 
0.0127119 0.0874782 0.0391233 
0.00429996 0.0874782 0.0409113 
-0.00429994 0.0874782 0.0409113 
-0.0127119 0.0874782 0.0391233 
-0.0205683 0.0874782 0.0356254 
-0.0275258 0.0874782 0.0305706 
-0.0332802 0.0874782 0.0241796 
0.0275258 0.0874782 -0.0305706 
0.0205683 0.0874782 -0.0356254 
0.0127119 0.0874782 -0.0391233 
0.00429996 0.0874782 -0.0409113 
-0.00429995 0.0874782 -0.0409113 
-0.0127119 0.0874782 -0.0391233 
-0.0205683 0.0874782 -0.0356254 
-0.0275258 0.0874782 -0.0305706 
-0.0332802 0.0874782 -0.0241796 
-0.0375802 0.0874782 -0.0167318 
-0.0402377 0.0874782 -0.00855279 
-0.0411367 0.0874782 -5.01253e-09 
-0.0402377 0.0874782 0.00855287 
-0.0375802 0.0874782 0.0167318 
0.0402377 0.0266997 -0.00855279 
0.0411367 0.0266997 6.26566e-09 
0.0402377 0.0266997 0.00855279 
0.0375802 0.0266997 0.0167318 
0.0332802 0.0266997 0.0241796 
0.0275258 0.0266997 0.0305706 
0.0205683 0.0266997 0.0356254 
0.0127119 0.0266997 0.0391233 
0.00429996 0.0266997 0.0409113 
-0.00429994 0.0266997 0.0409113 
-0.0127119 0.0266997 0.0391233 
-0.0205683 0.0266997 0.0356254 
-0.0275258 0.0266997 0.0305706 
-0.0332802 0.0266997 0.0241796 
-0.0375802 0.0266997 0.0167318 
-0.0402377 0.0266997 0.00855287 
-0.0411367 0.0266997 -5.01253e-09 
-0.0402377 0.0266997 -0.00855279 
-0.0375802 0.0266997 -0.0167318 
-0.0332802 0.0266997 -0.0241796 
-0.0275258 0.0266997 -0.0305706 
-0.0205683 0.0266997 -0.0356254 
-0.0127119 0.0266997 -0.0391233 
-0.00429995 0.0266997 -0.0409113 
0.00429996 0.0266997 -0.0409113 
0.0127119 0.0266997 -0.0391233 
0.0205683 0.0266997 -0.0356254 
0.0275258 0.0266997 -0.0305706 
0.0332803 0.0266997 -0.0241796 
0.0375802 0.0266997 -0.0167318 
-0.0392776 0.01904 -5.01253e-09 
-0.0384193 0.01904 0.00816634 
-0.035189 0.0118114 0.00747972 
-0.0328649 0.0118114 0.0146325 
-0.0285008 0.00528643 0.0126893 
-0.0252396 0.00528643 0.0183377 
-0.020308 -0.000262674 0.0147546 
-0.0167966 -0.000262674 0.0186545 
-0.0121634 -0.00456351 0.0135089 
-0.00908898 -0.00456351 0.0157426 
-0.00582561 -0.00734373 0.0100903 
-0.00360043 -0.00734373 0.011081 
-0.00254238 -0.00833099 0.00782466 
-0.000859986 -0.00833099 0.00818227 
-0.00085999 -0.00833099 -0.00818227 
0.000859991 -0.00833099 -0.00818227 
0.00121789 -0.00734373 -0.0115874 
0.00360044 -0.00734373 -0.011081 
0.00561731 -0.00456351 -0.0172883 
0.009089 -0.00456351 -0.0157426 
0.0125511 -0.000262674 -0.0217391 
0.0167966 -0.000262674 -0.0186545 
0.0208754 0.00528643 -0.0231846 
0.0252396 0.00528643 -0.0183377 
0.0291045 0.0118114 -0.0211456 
0.0328649 0.0118114 -0.0146325 
0.0358818 0.01904 -0.0159756 
0.0384193 0.01904 -0.00816627 
0.0317762 0.01904 -0.0230867 
0.0240721 0.0118114 -0.0267347 
0.015599 0.00528643 -0.0270182 
0.00775699 -0.000262674 -0.0238736 
0.00190013 -0.00456351 -0.0180784 
-0.00121789 -0.00734373 -0.0115874 
-0.00254238 -0.00833099 -0.00782466 
-0.00411366 -0.00833099 0.00712509 
-0.0077962 -0.00734373 0.00865857 
-0.0147063 -0.00456351 0.0106848 
-0.022932 -0.000262674 0.01021 
-0.0305162 0.00528643 0.00648647 
-0.0359752 0.0118114 -3.7594e-09 
-0.0384193 0.01904 -0.00816627 
0.0262818 0.01904 -0.029189 
0.0179876 0.0118114 -0.0311554 
0.00964069 0.00528643 -0.0296711 
0.00262388 -0.000262674 -0.0249647 
-0.00190011 -0.00456351 -0.0180784 
-0.00360044 -0.00734373 -0.011081 
-0.00411367 -0.00833099 -0.00712508 
-0.00550515 -0.00833099 0.00611411 
-0.00942605 -0.00734373 0.00684845 
-0.0166064 -0.00456351 0.00739368 
-0.0245536 -0.000262674 0.00521907 
-0.0311979 0.00528643 -3.7594e-09 
-0.035189 0.0118114 -0.00747966 
-0.0358818 0.01904 -0.0159757 
0.0196388 0.01904 -0.0340154 
0.0111169 0.0118114 -0.0342144 
0.00326108 0.00528643 -0.0310271 
-0.00262388 -0.000262674 -0.0249647 
-0.00561731 -0.00456351 -0.0172883 
-0.00582563 -0.00734373 -0.0100903 
-0.00550516 -0.00833099 -0.0061141 
-0.00665604 -0.00833099 0.00483591 
-0.0106439 -0.00734373 0.00473901 
-0.0177807 -0.00456351 0.00377945 
-0.0251021 -0.000262674 -2.50627e-09 
-0.0305162 0.00528643 -0.00648642 
-0.0328649 0.0118114 -0.0146325 
-0.0317762 0.01904 -0.0230868 
0.0121374 0.01904 -0.0373551 
0.00376043 0.0118114 -0.0357781 
-0.00326107 0.00528643 -0.0310271 
-0.00775698 -0.000262674 -0.0238736 
-0.009089 -0.00456351 -0.0157426 
-0.0077962 -0.00734373 -0.00865857 
-0.00665605 -0.00833099 -0.0048359 
-0.00751604 -0.00833099 0.00334637 
-0.0113966 -0.00734373 0.00242246 
-0.0181779 -0.00456351 -2.50627e-09 
-0.0245536 -0.000262674 -0.00521902 
-0.0285008 0.00528643 -0.0126893 
-0.0291045 0.0118114 -0.0211456 
-0.0262818 0.01904 -0.029189 
0.00410563 0.01904 -0.0390624 
-0.00376043 0.0118114 -0.0357781 
-0.00964069 0.00528643 -0.0296711 
-0.012551 -0.000262674 -0.0217391 
-0.0121634 -0.00456351 -0.0135089 
-0.00942606 -0.00734373 -0.00684843 
-0.00751604 -0.00833099 -0.00334635 
-0.00804754 -0.00833099 0.00171058 
-0.0116513 -0.00734373 -1.25313e-09 
-0.0177807 -0.00456351 -0.00377942 
-0.022932 -0.000262674 -0.01021 
-0.0252396 0.00528643 -0.0183377 
-0.0240721 0.0118114 -0.0267347 
-0.0196387 0.01904 -0.0340154 
-0.00410561 0.01904 -0.0390624 
-0.0111169 0.0118114 -0.0342144 
-0.015599 0.00528643 -0.0270182 
-0.0167966 -0.000262674 -0.0186545 
-0.0147063 -0.00456351 -0.0106847 
-0.0106439 -0.00734373 -0.004739 
-0.00804754 -0.00833099 -0.00171056 
-0.00822733 -0.00833099 0 
-0.0113966 -0.00734373 -0.00242243 
-0.0166064 -0.00456351 -0.00739366 
-0.020308 -0.000262674 -0.0147546 
-0.0208754 0.00528643 -0.0231846 
-0.0179876 0.0118114 -0.0311554 
-0.0121374 0.01904 -0.0373551 
-0.0358818 0.01904 0.0159757 
-0.0291045 0.0118114 0.0211457 
-0.0208754 0.00528643 0.0231846 
-0.012551 -0.000262674 0.0217391 
-0.00561729 -0.00456351 0.0172883 
-0.00121788 -0.00734373 0.0115874 
0.000859992 -0.00833099 0.00818227 
0.00254238 -0.00833099 0.00782466 
0.00254239 -0.00833099 -0.00782466 
0.00411367 -0.00833099 0.00712508 
0.00411367 -0.00833099 -0.00712508 
0.00550516 -0.00833099 0.0061141 
0.00550516 -0.00833099 -0.0061141 
0.00665605 -0.00833099 0.0048359 
0.00665605 -0.00833099 -0.0048359 
0.00751604 -0.00833099 0.00334635 
0.00751604 -0.00833099 -0.00334635 
0.00804754 -0.00833099 0.00171056 
0.00804754 -0.00833099 -0.00171056 
0.00822733 -0.00833099 0 
0.0116513 -0.00734373 1.25313e-09 
0.0113966 -0.00734373 0.00242243 
0.0177807 -0.00456351 0.00377942 
0.0166064 -0.00456351 0.00739366 
0.022932 -0.000262674 0.01021 
0.020308 -0.000262674 0.0147546 
0.0252396 0.00528643 0.0183377 
0.0208754 0.00528643 0.0231846 
0.0240721 0.0118114 0.0267347 
0.0179876 0.0118114 0.0311554 
0.0196387 0.01904 0.0340154 
0.0121374 0.01904 0.0373551 
0.00582563 -0.00734373 -0.0100903 
0.0121634 -0.00456351 -0.0135089 
0.020308 -0.000262674 -0.0147546 
0.0285008 0.00528643 -0.0126893 
0.035189 0.0118114 -0.00747965 
0.0392776 0.01904 5.01253e-09 
0.0077962 -0.00734373 -0.00865857 
0.0147063 -0.00456351 -0.0106847 
0.022932 -0.000262674 -0.0102099 
0.0305162 0.00528643 -0.00648642 
0.0359752 0.0118114 5.01253e-09 
0.0384193 0.01904 0.00816628 
0.00942606 -0.00734373 -0.00684843 
0.0166064 -0.00456351 -0.00739366 
0.0245536 -0.000262674 -0.00521902 
0.0311979 0.00528643 5.01253e-09 
0.035189 0.0118114 0.00747966 
0.0358818 0.01904 0.0159757 
0.0106439 -0.00734373 -0.00473898 
0.0177807 -0.00456351 -0.00377941 
0.0251021 -0.000262674 3.7594e-09 
0.0305162 0.00528643 0.00648642 
0.0328649 0.0118114 0.0146325 
0.0317762 0.01904 0.0230868 
0.0113966 -0.00734373 -0.00242243 
0.0181779 -0.00456351 2.50627e-09 
0.0245536 -0.000262674 0.00521904 
0.0285008 0.00528643 0.0126893 
0.0291045 0.0118114 0.0211456 
0.0262818 0.01904 0.029189 
0.0106439 -0.00734373 0.004739 
0.0147063 -0.00456351 0.0106847 
0.0167966 -0.000262674 0.0186545 
0.015599 0.00528643 0.0270182 
0.0111169 0.0118114 0.0342144 
0.00410564 0.01904 0.0390624 
0.00942606 -0.00734373 0.00684843 
0.0121634 -0.00456351 0.0135089 
0.012551 -0.000262674 0.0217391 
0.00964069 0.00528643 0.0296711 
0.00376044 0.0118114 0.0357781 
-0.0041056 0.01904 0.0390624 
0.0077962 -0.00734373 0.00865857 
0.009089 -0.00456351 0.0157426 
0.00775698 -0.000262674 0.0238736 
0.00326108 0.00528643 0.0310271 
-0.00376041 0.0118114 0.0357781 
-0.0121374 0.01904 0.0373551 
0.00582563 -0.00734373 0.0100903 
0.00561731 -0.00456351 0.0172883 
0.0026239 -0.000262674 0.0249647 
-0.00326105 0.00528643 0.0310271 
